ply
format ascii 1.0
element vertex 721
comment vertices
property float x
property float y
property float z
end_header
-0.345321238040924072 -0.0990543216466903687 0.235402092337608337
-0.153113216161727905 0.20846007764339447 0.0945960134267807007
0.111699670553207397 0.111788973212242126 -0.0406947620213031769
-0.184336349368095398 -0.214074790477752686 0.123397752642631531
0.125228658318519592 0.106536723673343658 -0.0202384684234857559
-0.0829715952277183533 -0.0231734868139028549 -0.0932582169771194458
0.0881362259387969971 0.149603366851806641 -0.363478779792785645
0.165319204330444336 0.034339074045419693 -0.229383915662765503
-0.0982515811920166016 0.186983078718185425 0.089192807674407959
0.297332167625427246 -0.0203648097813129425 -0.14588358998298645
-0.167470395565032959 0.263320714235305786 -0.143539085984230042
-0.112601004540920258 -0.12168082594871521 0.0143848508596420288
-0.0364947393536567688 0.201107770204544067 -0.173971801996231079
-0.147993400692939758 0.0366374067962169647 -0.085217207670211792
-0.0486739315092563629 0.0876727551221847534 0.14000333845615387
-0.100216411054134369 0.074955277144908905 0.184855177998542786
0.155392423272132874 0.0855279415845870972 -0.184963628649711609
-0.101287901401519775 0.264768362045288086 -0.0231064502149820328
-0.100107923150062561 0.258663535118103027 -0.0458239540457725525
-0.0541473589837551117 -0.115019664168357849 0.266075998544692993
-0.107676975429058075 0.00708398967981338501 -0.0766248255968093872
-0.0835102945566177368 -0.320676505565643311 0.214421302080154419
-0.129720792174339294 -0.107448123395442963 0.330106794834136963
-0.145208895206451416 0.223612934350967407 0.104495838284492493
0.273198038339614868 0.0284798964858055115 -0.229234188795089722
0.00545587204396724701 0.17298947274684906 -0.308344364166259766
0.17956937849521637 -0.0790188312530517578 -0.231527835130691528
0.204994797706604004 0.0270576011389493942 -0.0102022010833024979
-0.144273862242698669 0.0505762994289398193 -0.110679730772972107
0.0831653326749801636 -0.367534369230270386 0.218200638890266418
-0.0193381905555725098 -0.308322548866271973 0.267485380172729492
0.0834935307502746582 -0.325974404811859131 0.243163853883743286
-0.336200594902038574 -0.130100920796394348 0.208619385957717896
-0.00175162777304649353 -0.253489583730697632 0.00208602100610733032
0.0120958331972360611 -0.339958131313323975 0.0575172975659370422
0.0221078023314476013 -0.0114687606692314148 0.149678319692611694
0.0183685328811407089 -0.384636580944061279 0.123231902718544006
0.198143348097801208 0.0289129018783569336 -0.0449404977262020111
-0.261070072650909424 0.0536761879920959473 -0.00351185351610183716
0.055909864604473114 0.149831339716911316 -0.279265880584716797
0.0733863338828086853 -0.110508732497692108 -0.158327460289001465
0.0563512295484542847 -0.402842223644256592 0.151384234428405762
-0.117071203887462616 -0.306566119194030762 0.115817606449127197
-0.204793840646743774 -0.261794477701187134 0.220793753862380981
-0.0865417569875717163 0.11637599766254425 0.143888622522354126
0.0543497130274772644 -0.19083048403263092 0.233526527881622314
0.104295253753662109 -0.0873175784945487976 -0.185576766729354858
0.172321334481239319 -0.00700370781123638153 0.0383523479104042053
-0.166301891207695007 0.0636474490165710449 0.255000501871109009
-0.259646058082580566 -0.223877668380737305 0.267863661050796509
0.145917683839797974 -0.114583864808082581 -0.204348772764205933
-0.269206821918487549 0.128381133079528809 0.00419947411864995956
-0.189346790313720703 0.135609880089759827 -0.116392605006694794
0.0740249454975128174 -0.278633236885070801 0.246492519974708557
-0.0366296693682670593 0.0660739094018936157 -0.191456884145736694
0.0676228255033493042 -0.121715888381004333 0.175202801823616028
0.0763123929500579834 -0.283526778221130371 -0.0415883399546146393
0.193542122840881348 0.0599562302231788635 -0.319820165634155273
0.18684762716293335 -0.185814380645751953 -0.157199651002883911
-0.0295924060046672821 -0.0119557753205299377 -0.130298972129821777
-0.198253020644187927 0.166292265057563782 0.168089315295219421
-0.319212138652801514 -0.158177018165588379 0.282342106103897095
0.163648977875709534 0.0127852484583854675 -0.296591311693191528
0.279269158840179443 -0.0604960247874259949 -0.055645480751991272
0.133971720933914185 -0.00724123045802116394 0.0654347389936447144
0.204172804951667786 -0.152479171752929688 -0.180621296167373657
0.0959868952631950378 0.0908806845545768738 -0.233483389019966125
0.12946358323097229 -0.363322257995605469 -0.00606085732579231262
-0.287180066108703613 0.0762049779295921326 0.0136454738676548004
-0.144550174474716187 0.288770914077758789 -0.127949357032775879
-0.282294392585754395 -0.0742343738675117493 0.320859849452972412
-0.219730928540229797 0.136468112468719482 0.192669034004211426
-0.167084917426109314 0.219702064990997314 0.11116492748260498
-0.168103799223899841 -0.290458410978317261 0.211545109748840332
-0.0812901854515075684 -0.224018275737762451 0.0545033775269985199
0.262083828449249268 -0.0611435472965240479 -0.191462457180023193
-0.138837844133377075 0.0504647120833396912 -0.0921158269047737122
-0.229338884353637695 -0.122346252202987671 0.090590156614780426
-0.0975693613290786743 -0.0533928051590919495 0.268537372350692749
-0.231626793742179871 0.184052780270576477 -0.0249913465231657028
0.107580997049808502 -0.265999197959899902 0.233984783291816711
-0.298048645257949829 -0.21449744701385498 0.236199468374252319
-0.104439496994018555 0.158013314008712769 0.136993110179901123
-0.0303761009126901627 -0.327976703643798828 0.242127090692520142
0.122913703322410583 -0.00107445940375328064 0.0677670836448669434
0.175671756267547607 -0.276417434215545654 -0.0601547770202159882
0.0790323317050933838 -0.383090078830718994 0.195089384913444519
0.0869353711605072021 -0.41136401891708374 0.149449259042739868
-0.262630194425582886 0.121632330119609833 0.088306918740272522
0.237176686525344849 0.0524143874645233154 -0.251497536897659302
0.251037776470184326 -0.155592918395996094 -0.0884673371911048889
0.265662640333175659 -0.157143637537956238 -0.0396776273846626282
-0.281524628400802612 0.0064905509352684021 0.267223387956619263
-0.285305678844451904 -0.0220123250037431717 0.0730148851871490479
0.0145027376711368561 -0.171350300312042236 -0.0622639507055282593
-0.320179402828216553 0.00402577966451644897 0.117023736238479614
-0.329800724983215332 -0.0257063135504722595 0.191870033740997314
0.0700664520263671875 -0.325510472059249878 0.23091849684715271
-0.0909458398818969727 0.247042164206504822 -0.271286666393280029
-0.0350286811590194702 0.0529894009232521057 0.14925616979598999
0.124666713178157806 -0.422908902168273926 0.09157591313123703
0.0905116051435470581 -0.141296654939651489 -0.148415595293045044
-0.180040016770362854 -0.222615063190460205 0.136669233441352844
0.0451459810137748718 -0.300906330347061157 0.00295082852244377136
0.0608094856142997742 0.149031966924667358 -0.00898253172636032104
0.155603885650634766 -0.161753714084625244 0.147904142737388611
0.21007007360458374 0.0334071256220340729 -0.149252757430076599
0.050407756119966507 -0.264683723449707031 0.279660344123840332
0.110042490065097809 -0.291212201118469238 -0.052217487245798111
-0.123960822820663452 -0.299347102642059326 0.14998096227645874
0.147992551326751709 -0.196880832314491272 0.171019405126571655
-0.193009406328201294 0.0898113250732421875 -0.089056849479675293
-0.20599481463432312 -0.245452478528022766 0.181732267141342163
0.209602683782577515 0.0473652519285678864 -0.229931533336639404
0.303542375564575195 -0.0341694280505180359 -0.10949435830116272
-0.155111119151115417 0.153717905282974243 0.138610303401947021
-0.0114178359508514404 -0.063606753945350647 0.197121411561965942
-0.294719189405441284 0.0746291801333427429 0.087826952338218689
0.0757665783166885376 -0.202811792492866516 -0.0749612301588058472
0.196164160966873169 -0.302802920341491699 0.179771959781646729
0.218156933784484863 -0.136900603771209717 0.0912866666913032532
-0.190818667411804199 0.198047101497650146 -0.145371884107589722
0.225816056132316589 -0.249701693654060364 0.0735768675804138184
-0.130043923854827881 -0.0626090094447135925 0.305496543645858765
-0.0735076814889907837 -0.331002295017242432 0.148733332753181458
-0.078896641731262207 -0.201132342219352722 0.345292001962661743
0.0481140017509460449 -0.0851511955261230469 0.172289103269577026
0.0598655715584754944 -0.099455028772354126 -0.139288246631622314
0.161268472671508789 -0.0485620312392711639 -0.247479453682899475
-0.263861298561096191 -0.0535231791436672211 0.0851246640086174011
0.202661752700805664 -0.247627601027488708 0.144610971212387085
-0.228315532207489014 0.183252096176147461 -0.074132770299911499
0.133645206689834595 -0.0392015352845191956 -0.239014238119125366
0.188046962022781372 -0.334328889846801758 0.0499496385455131531
-0.305078744888305664 0.0522318035364151001 0.0529680550098419189
-0.275285720825195312 0.108793489634990692 0.0390919968485832214
0.10364861786365509 0.125335052609443665 -0.333117902278900146
0.098421826958656311 -0.228458195924758911 0.229034632444381714
0.0179316475987434387 -0.374211251735687256 0.0752768814563751221
-0.0501438453793525696 -0.255975246429443359 0.322017490863800049
0.247502535581588745 0.0478632077574729919 -0.105478376150131226
0.103043414652347565 -0.391130745410919189 0.0309898611158132553
0.198392242193222046 -0.228186130523681641 -0.0865977481007575989
-0.183130845427513123 -0.249171510338783264 0.152021512389183044
-0.0182244665920734406 0.0560761690139770508 0.137719631195068359
0.00733137130737304688 -0.226248279213905334 -0.0253617241978645325
-0.0238804370164871216 0.00419709086418151855 0.173053503036499023
-0.184613481163978577 -0.158044487237930298 0.322952985763549805
0.28380092978477478 -0.142628982663154602 0.00288907438516616821
0.112697862088680267 0.11299993097782135 -0.288014590740203857
0.194527328014373779 0.066303253173828125 -0.269425451755523682
-0.126941576600074768 0.182828262448310852 0.130506455898284912
0.263824433088302612 -0.198425009846687317 0.0750194340944290161
0.254316568374633789 -0.217046350240707397 0.0438718162477016449
0.092107824981212616 0.081112295389175415 0.0387751907110214233
0.00695471279323101044 0.086958467960357666 -0.244854092597961426
0.18624955415725708 -0.0621558204293251038 0.0660342872142791748
0.144983977079391479 -0.232917428016662598 -0.110978707671165466
0.29090842604637146 0.0169432442635297775 -0.155648797750473022
0.267922967672348022 0.0377458669245243073 -0.203987374901771545
-0.199875757098197937 0.188998758792877197 0.133216962218284607
-0.213445484638214111 -0.154482513666152954 0.344425439834594727
0.202943190932273865 -0.0362167283892631531 -0.188678324222564697
0.220963269472122192 0.035972297191619873 -0.192952439188957214
0.0694711655378341675 -0.227877005934715271 -0.0717407763004302979
-0.140321865677833557 -0.242899149656295776 0.110401622951030731
0.120382718741893768 -0.306473881006240845 0.227735936641693115
0.202956870198249817 0.0761518776416778564 -0.0829584598541259766
0.195243939757347107 -0.11786331981420517 -0.214754760265350342
-0.0178862009197473526 0.112170904874801636 0.0989796370267868042
-0.00973081216216087341 0.0530169829726219177 -0.23225836455821991
0.216562569141387939 0.0693700313568115234 -0.0660080388188362122
0.0389849022030830383 -0.207170456647872925 -0.0580682680010795593
-0.183807611465454102 -0.0315197445452213287 -0.00877857953310012817
-0.197489991784095764 0.101568214595317841 -0.0931657329201698303
0.0931739583611488342 -0.31354638934135437 0.267763495445251465
0.0957291945815086365 0.0699225291609764099 -0.301596015691757202
-0.0785001218318939209 -0.346124529838562012 0.128729835152626038
-0.0225055888295173645 -0.112635940313339233 0.236873269081115723
0.255651235580444336 -0.176797389984130859 0.011789100244641304
0.256569892168045044 0.0217983685433864594 -0.0609047003090381622
-0.195445626974105835 -0.00750856101512908936 0.314571976661682129
-0.300046563148498535 -0.0459110625088214874 0.107742778956890106
-0.122926041483879089 0.297668933868408203 -0.126893222332000732
-0.144621551036834717 0.302929878234863281 -0.11504826694726944
-0.262794852256774902 -0.135907083749771118 0.331159412860870361
-0.01264963299036026 0.195544242858886719 -0.12420259416103363
-0.161992669105529785 0.163523212075233459 0.178396791219711304
0.0568749979138374329 0.155466735363006592 -0.10810619592666626
-0.0189514756202697754 0.179398447275161743 -0.100752130150794983
-0.0881249606609344482 -0.306749939918518066 0.242579832673072815
-0.0217246841639280319 0.15222969651222229 0.074130818247795105
-0.14751453697681427 0.273234933614730835 -0.00564913451671600342
0.222775489091873169 -0.00583550333976745605 -0.280781149864196777
-0.117306411266326904 -0.336588382720947266 0.139589220285415649
0.205113232135772705 0.0376666411757469177 -0.31415519118309021
-0.160650968551635742 0.227547585964202881 -0.153653576970100403
0.123395219445228577 -0.004518900066614151 -0.268967986106872559
-0.109994277358055115 -0.311222940683364868 0.206405580043792725
-0.179929330945014954 0.170257225632667542 0.177628517150878906
-0.141170814633369446 0.179882317781448364 -0.202607855200767517
-0.289495646953582764 -0.154326871037483215 0.300612032413482666
-0.223014503717422485 0.0424099937081336975 0.243637010455131531
-0.216186746954917908 0.181808769702911377 0.0889489054679870605
-0.0556826181709766388 0.232021331787109375 -0.0815895348787307739
-0.236652404069900513 0.136218070983886719 0.14356781542301178
-0.238095507025718689 0.116152584552764893 -0.0768137276172637939
-0.0877009928226470947 0.251931995153427124 -0.112568408250808716
-0.211697429418563843 0.205727562308311462 0.0173710547387599945
0.136633038520812988 0.111670993268489838 -0.0881371647119522095
-0.122927799820899963 0.132541373372077942 0.174265623092651367
0.243225395679473877 -0.104846149682998657 -0.163119837641716003
0.134737640619277954 -0.241286113858222961 0.203325152397155762
-0.241284355521202087 0.118993028998374939 0.183700829744338989
-0.0692485496401786804 0.234902128577232361 -0.110055029392242432
-0.143215999007225037 0.183382511138916016 0.148723185062408447
-0.0361578501760959625 -0.152952253818511963 -0.0227354839444160461
-0.0368393845856189728 0.224862843751907349 -0.30905190110206604
0.0489825047552585602 0.0986834615468978882 0.0591363497078418732
0.280190408229827881 -0.067871585488319397 0.00577391311526298523
-0.31531098484992981 -0.188015356659889221 0.261656820774078369
0.0017783197108656168 0.186527341604232788 -0.312845557928085327
0.0788142606616020203 0.138201713562011719 -0.335266292095184326
0.182175293564796448 0.0588663220405578613 -0.18048897385597229
-0.188878327608108521 0.108941711485385895 -0.112727753818035126
-0.241184547543525696 0.150508373975753784 0.0796075537800788879
-0.0900786668062210083 0.218746006488800049 0.057932637631893158
0.0846800059080123901 -0.423917263746261597 0.116580024361610413
0.269242167472839355 -0.152195602655410767 0.0651693418622016907
-0.300268590450286865 -0.0918487533926963806 0.147906139492988586
0.104532673954963684 -0.423072516918182373 0.0778534114360809326
-0.0245401430875062943 -0.333316385746002197 0.0653400570154190063
-0.0754720345139503479 0.0531659834086894989 0.186205536127090454
-0.144448280334472656 -0.154258400201797485 0.365444362163543701
0.271820276975631714 0.00923909991979598999 -0.236474364995956421
-0.15992523729801178 -0.266178518533706665 0.132486969232559204
-0.252903997898101807 -0.188750594854354858 0.315831393003463745
-0.289456635713577271 -0.0688978284597396851 0.125704780220985413
0.128654763102531433 0.11441938579082489 -0.0616542473435401917
-0.169296979904174805 -0.181438758969306946 0.0832005962729454041
0.221115991473197937 -0.102754130959510803 0.0710427761077880859
0.156917363405227661 -0.189243078231811523 -0.154347434639930725
-0.016279999166727066 -0.124263636767864227 -0.0476005338132381439
0.0754649639129638672 0.026621965691447258 0.0865143835544586182
0.24841095507144928 0.0364914983510971069 -0.0696915090084075928
0.202498078346252441 0.00497199222445487976 -0.282236069440841675
0.244789615273475647 0.0481040775775909424 -0.0878308564424514771
-0.0735076442360877991 0.240744411945343018 -0.038064274936914444
0.140326723456382751 -0.0294094383716583252 0.0753831490874290466
-0.0699719339609146118 0.222953140735626221 -0.180384799838066101
0.0255476497113704681 0.158219039440155029 -0.118149690330028534
-0.0722884088754653931 -0.0677153915166854858 0.24836575984954834
-0.0444325916469097137 -0.198676317930221558 0.317000448703765869
0.00595346651971340179 0.00374991446733474731 -0.176368027925491333
-0.0259604547172784805 -0.172821983695030212 0.279785186052322388
0.101057618856430054 -0.00236222892999649048 -0.243332892656326294
-0.31263124942779541 -0.175369113683700562 0.238279283046722412
0.0310422256588935852 -0.314125955104827881 0.273333072662353516
-0.00367803126573562622 0.150618001818656921 0.0456709936261177063
-0.214880943298339844 0.167990371584892273 0.136730805039405823
0.115426301956176758 -0.336458742618560791 0.209768742322921753
-0.298021614551544189 0.00376104563474655151 0.100228250026702881
-0.0287365354597568512 0.194319486618041992 -0.301727652549743652
-0.0923092588782310486 -0.0951958820223808289 0.289843082427978516
0.0612709969282150269 -0.123891718685626984 -0.112697534263134003
-0.164591521024703979 0.120777443051338196 -0.140656232833862305
-0.18985709547996521 0.129350334405899048 -0.132910102605819702
-0.10439889132976532 0.0311378240585327148 -0.124342098832130432
0.0874785333871841431 -0.397563755512237549 0.0802919045090675354
-0.119333349168300629 0.0747245326638221741 -0.140547752380371094
-0.0744792520999908447 -0.26001816987991333 0.296596169471740723
-0.0255728960037231445 -0.345705300569534302 0.204757407307624817
0.0772065222263336182 -0.0613585151731967926 0.134697005152702332
0.007470741868019104 -0.238289386034011841 0.00365994125604629517
-0.32503807544708252 -0.16197618842124939 0.221976757049560547
-0.210510492324829102 0.203522041440010071 0.0312847420573234558
0.181330427527427673 -0.359300971031188965 0.158059075474739075
0.231445193290710449 -0.144201710820198059 -0.138159483671188354
-0.073732227087020874 0.232650637626647949 -0.222203999757766724
0.0188055969774723053 0.104915931820869446 0.0774254053831100464
-0.208485007286071777 -0.0944641008973121643 0.0872248336672782898
-0.0863817036151885986 0.263130128383636475 -0.272520691156387329
-0.0898402035236358643 -0.301268875598907471 0.0942047238349914551
0.261546939611434937 -0.140199780464172363 -0.100606702268123627
0.16340973973274231 0.0559030324220657349 -0.327803194522857666
-0.253454983234405518 -0.137545675039291382 0.143663108348846436
-0.235944554209709167 -0.11648549884557724 0.127066507935523987
-0.133457690477371216 0.214685559272766113 0.0649751126766204834
-0.197125434875488281 -0.137554138898849487 0.362641632556915283
-0.335468262434005737 -0.0897685810923576355 0.180901914834976196
-0.132289141416549683 0.29107201099395752 -0.0323229879140853882
-0.0916590690612792969 -0.132658854126930237 0.319168448448181152
0.246246069669723511 -0.200216785073280334 -0.032198391854763031
-0.0584153421223163605 0.184703260660171509 0.0602323710918426514
-0.0945375785231590271 0.210887938737869263 0.0681559666991233826
0.286149919033050537 0.00883932970464229584 -0.120007283985614777
-0.000288153067231178284 0.1827736496925354 -0.167172208428382874
-0.0216132327914237976 -0.225886017084121704 0.0100624635815620422
0.136439025402069092 -0.26350092887878418 0.207566574215888977
0.00806107744574546814 0.197516649961471558 -0.330761849880218506
-0.284572511911392212 -0.0128517821431159973 0.220106184482574463
0.1617756187915802 -0.123992875218391418 -0.21007847785949707
-0.00529603660106658936 -0.0693200379610061646 -0.114742383360862732
-0.134794443845748901 0.282207608222961426 -0.181356728076934814
-0.137390598654747009 0.268118113279342651 0.0262601133435964584
0.0496956221759319305 0.144270077347755432 -0.23973885178565979
-0.0835490971803665161 0.204621985554695129 0.043201148509979248
-0.000854216050356626511 -0.374498367309570312 0.163554012775421143
0.207544758915901184 -0.259770005941390991 -0.021557418629527092
-0.1096363365650177 0.279808104038238525 -0.0567291229963302612
-0.154245123267173767 0.141659021377563477 -0.168291240930557251
-0.143966987729072571 0.159240067005157471 0.165904268622398376
-0.135316163301467896 0.205640256404876709 -0.22250211238861084
-0.14466509222984314 0.0557133033871650696 0.240669399499893188
-0.286957323551177979 -0.18031775951385498 0.308450698852539062
0.00902294926345348358 -0.386141985654830933 0.107780486345291138
-0.168878763914108276 0.268392622470855713 -0.0272812414914369583
-0.0977735817432403564 -0.24659430980682373 0.320623815059661865
-0.175601214170455933 0.19592776894569397 -0.17365071177482605
0.164867401123046875 0.0925498902797698975 -0.304320067167282104
-0.112953081727027893 0.028690040111541748 -0.105470135807991028
0.290126144886016846 -0.0485410615801811218 -0.137103855609893799
-0.331709623336791992 -0.0411067530512809753 0.133515611290931702
-0.255219936370849609 -0.245192736387252808 0.208782672882080078
0.149157196283340454 -0.0238278880715370178 -0.267728745937347412
0.149768650531768799 0.0860587507486343384 -0.137287497520446777
-0.272082388401031494 -0.201311543583869934 0.244450509548187256
-0.12622755765914917 0.269339680671691895 -0.00578166544437408447
0.0911922156810760498 -0.252386301755905151 -0.0720015168190002441
-0.105234518647193909 0.239557594060897827 0.0370720550417900085
0.0795468240976333618 -0.209154292941093445 0.212642401456832886
-0.176395192742347717 0.199302837252616882 0.135090216994285583
0.285238027572631836 -0.0585629530251026154 -0.011517377570271492
-0.0176287554204463959 0.174737647175788879 0.0474022291600704193
0.0651529133319854736 -0.414084494113922119 0.118397444486618042
-0.010954584926366806 0.125412419438362122 0.0899186134338378906
-0.00356297940015792847 -0.163047507405281067 -0.0370044112205505371
-0.059751417487859726 -0.164640367031097412 0.313232302665710449
0.269601643085479736 -0.152269169688224792 -0.0457338914275169373
-0.254869967699050903 0.147733822464942932 -0.000207899138331413269
0.0462406426668167114 -0.346026480197906494 0.234151959419250488
0.178495392203330994 -0.367160439491271973 0.110636211931705475
-0.200835615396499634 0.0224663354456424713 0.306989133358001709
0.268739491701126099 0.0337747372686862946 -0.0998333767056465149
-0.150068774819374084 0.284844130277633667 -0.0513621903955936432
0.0914074033498764038 0.137484043836593628 -0.0558134466409683228
0.187332391738891602 0.0131853818893432617 0.00147786084562540054
0.132337301969528198 0.117007069289684296 -0.349773645401000977
0.27475440502166748 -0.10973309725522995 -0.0581235326826572418
-0.18633657693862915 0.146126016974449158 0.208463385701179504
0.146817103028297424 -0.394318997859954834 0.155886679887771606
0.154721155762672424 0.0151191297918558121 -0.287333786487579346
0.251293599605560303 -0.234658390283584595 0.0715561211109161377
-0.0339629948139190674 0.194316595792770386 -0.158762067556381226
-0.19104883074760437 -0.117506980895996094 0.0582411289215087891
0.0905751511454582214 0.0970025509595870972 0.0279656387865543365
0.201013058423995972 -0.272133827209472656 0.167821392416954041
0.00857650861144065857 -0.133206620812416077 0.226998224854469299
-0.225103199481964111 0.115275859832763672 0.1701631098985672
-0.0660710260272026062 0.243883490562438965 -0.29618537425994873
0.135101392865180969 -0.370116710662841797 0.21200859546661377
0.138232320547103882 -0.381696999073028564 0.181488901376724243
0.154767155647277832 -0.142146080732345581 -0.184035629034042358
0.0478196404874324799 -0.14559270441532135 0.208932369947433472
-0.132477015256881714 0.0198666583746671677 -0.0689683035016059875
-0.329783380031585693 -0.0700948387384414673 0.242848187685012817
0.0284229516983032227 0.153379946947097778 0.0131688434630632401
0.103331297636032104 0.105126425623893738 -0.16550762951374054
0.0956680625677108765 -0.160607308149337769 -0.13433760404586792
0.0529056526720523834 0.0887094736099243164 -0.285330623388290405
0.20738336443901062 -0.202019155025482178 -0.0865824148058891296
0.286243200302124023 -0.127507716417312622 -0.0141475573182106018
-0.203020378947257996 0.0457781217992305756 0.284456551074981689
-0.325726509094238281 -0.145792409777641296 0.260562658309936523
0.15529148280620575 0.0931235998868942261 -0.152182310819625854
-0.241693496704101562 0.0152530074119567871 0.305615156888961792
0.14685492217540741 -0.303398221731185913 0.194802328944206238
0.102544814348220825 -0.331779301166534424 0.258420974016189575
0.164187178015708923 0.0594503879547119141 -0.289190292358398438
0.200515836477279663 0.0647229105234146118 -0.0470428392291069031
0.119153887033462524 -0.256893455982208252 -0.0705778747797012329
0.246288195252418518 -0.0322938710451126099 -0.236024007201194763
0.0901286229491233826 0.0339945033192634583 0.0593874268233776093
-0.289786458015441895 -0.139312714338302612 0.319549858570098877
-0.0462235771119594574 -0.248108506202697754 0.0362817198038101196
0.0929293334484100342 0.000364508479833602905 -0.244135499000549316
0.214466720819473267 0.0611364617943763733 -0.275821149349212646
-0.0522840209305286407 -0.27543485164642334 0.300195813179016113
-0.236081570386886597 0.0722143575549125671 -0.0456352010369300842
-0.11002301424741745 0.288178384304046631 -0.121737226843833923
0.26867443323135376 0.0389265008270740509 -0.182828038930892944
-0.112127169966697693 0.11268606036901474 0.171005338430404663
-0.182801112532615662 0.236699491739273071 -0.144689068198204041
-0.0871107056736946106 -0.159157633781433105 0.01300029456615448
-0.0740155056118965149 0.161884799599647522 0.107735380530357361
0.0605819262564182281 -0.0513111986219882965 -0.177867770195007324
0.0210368391126394272 -0.118371583521366119 -0.0919380858540534973
0.0526393689215183258 -0.0189257711172103882 -0.189121365547180176
-0.261689811944961548 -0.0405056476593017578 0.297437787055969238
0.211111187934875488 -0.240066111087799072 0.153257787227630615
0.11987651139497757 0.11839979887008667 -0.0417020246386528015
0.203262686729431152 -0.090758979320526123 0.079093247652053833
-0.226510748267173767 0.185581892728805542 -0.0512689091265201569
-0.259758472442626953 0.129908859729766846 0.0586461387574672699
-0.0346184372901916504 -0.151034504175186157 0.263423353433609009
-0.173961520195007324 -0.12077755481004715 0.367745518684387207
-0.0175599120557308197 0.19131237268447876 -0.0715112760663032532
0.196230500936508179 -0.263418436050415039 -0.0578785575926303864
0.166164562106132507 0.0604020692408084869 -0.00655056536197662354
-0.173994362354278564 -0.205409735441207886 0.329103231430053711
0.062706582248210907 -0.327142328023910522 0.267044752836227417
0.240174010396003723 -0.0197489149868488312 -0.00748799741268157959
0.0545121170580387115 -0.347864657640457153 0.241914212703704834
0.222798824310302734 -0.265970170497894287 0.0417707301676273346
0.188272237777709961 0.0752554088830947876 -0.303436696529388428
-0.108505040407180786 -0.0822276175022125244 -0.00745269283652305603
0.0144801605492830276 -0.0516274794936180115 -0.147304341197013855
-0.0330817811191082001 0.208830386400222778 -0.00739988312125205994
-0.262299299240112305 -0.2485179603099823 0.219960451126098633
-0.00455629453063011169 -0.259109854698181152 0.322546005249023438
-0.152915745973587036 0.0037247389554977417 0.288129568099975586
-0.314436972141265869 -0.027423713356256485 0.108629219233989716
0.018205735832452774 0.122610993683338165 -0.278738677501678467
0.126589998602867126 -0.250054240226745605 -0.0923314690589904785
-0.202760472893714905 -0.147201597690582275 0.0916818529367446899
0.0310146138072013855 -0.171467557549476624 0.241291463375091553
0.182629629969596863 0.048520110547542572 -0.0254636071622371674
0.0542228370904922485 -0.00182621181011199951 -0.229967102408409119
0.217499285936355591 0.0594333335757255554 -0.23163190484046936
0.0538210496306419373 0.141159564256668091 0.0150584839284420013
0.0256925001740455627 -0.360276609659194946 0.207908898591995239
0.173757269978523254 0.0873077213764190674 -0.0872485414147377014
-0.233177304267883301 -0.00335317477583885193 0.311803191900253296
-0.0252198837697505951 0.170157700777053833 -0.282918095588684082
-0.329462170600891113 -0.00593725219368934631 0.114665940403938293
-0.247434154152870178 0.0152478627860546112 0.27076113224029541
-0.0551557205617427826 0.167579695582389832 0.0884265080094337463
0.0263693872839212418 0.114542752504348755 -0.284299790859222412
-2.12490558624267578e-05 -0.270371079444885254 0.283306360244750977
0.0955873429775238037 -0.0028441157191991806 -0.259219050407409668
0.159562870860099792 -0.0336259901523590088 -0.240909293293952942
0.167398393154144287 -0.315161436796188354 -0.0308543797582387924
-0.0489398762583732605 0.223052918910980225 -0.059058409184217453
-0.118934765458106995 0.256995022296905518 -0.000113714486360549927
0.0607965998351573944 0.132807940244674683 -0.188185200095176697
0.105035141110420227 -0.378367602825164795 0.0342376828193664551
-0.170718014240264893 0.227569907903671265 -0.165815025568008423
-0.020872894674539566 -0.356134235858917236 0.124418169260025024
0.0407726094126701355 0.178314372897148132 -0.334435820579528809
-0.191157206892967224 -0.0717933103442192078 0.0281795263290405273
-0.206660032272338867 -0.252964228391647339 0.169782876968383789
0.031554684042930603 0.171574771404266357 -0.0686330944299697876
-0.0544170215725898743 0.018449755385518074 -0.139612570405006409
0.102981239557266235 -0.424229443073272705 0.0998740494251251221
-0.159405261278152466 0.235062494874000549 -0.192428961396217346
0.0628576949238777161 -0.379754185676574707 0.106104984879493713
0.149283185601234436 -0.395924031734466553 0.0635331645607948303
0.165493056178092957 -0.271719843149185181 0.17199234664440155
0.246499583125114441 -0.146447271108627319 0.0787099748849868774
0.122447475790977478 0.108329437673091888 -0.263228088617324829
0.113023646175861359 -0.229960650205612183 0.204433441162109375
0.196596547961235046 0.050720803439617157 -0.0215870141983032227
-0.0367368534207344055 -0.269947916269302368 0.289685666561126709
-0.247567653656005859 0.147548869252204895 -0.0460108071565628052
-0.211636513471603394 0.188029289245605469 -0.103100910782814026
-0.110424324870109558 -0.217836499214172363 0.342385590076446533
0.108743220567703247 0.107239499688148499 -0.141180709004402161
0.262890875339508057 0.0128848794847726822 -0.0799120739102363586
0.0093756895512342453 -0.131170183420181274 -0.0678225159645080566
0.0389589965343475342 -0.0432532727718353271 0.152260884642601013
0.172163322567939758 -0.197839334607124329 0.152101695537567139
-0.019194677472114563 -0.176358982920646667 0.276516526937484741
-0.307668149471282959 -0.0634332969784736633 0.18413698673248291
0.00628181174397468567 0.0757707729935646057 0.10923747718334198
-0.154009446501731873 -0.0664836093783378601 -0.00153953582048416138
0.0734835267066955566 -0.193825766444206238 0.221725031733512878
-0.338369369506835938 -0.0584653764963150024 0.218389421701431274
0.200867056846618652 -0.299802124500274658 0.108615338802337646
-0.079989016056060791 -0.324967682361602783 0.186079144477844238
0.239641070365905762 0.0482907034456729889 -0.220149427652359009
0.0309098996222019196 -0.0862280279397964478 -0.141965985298156738
0.179221957921981812 -0.196563720703125 0.139545515179634094
-0.286294251680374146 0.0740996226668357849 0.135695904493331909
-0.295658707618713379 0.0342965573072433472 0.214371860027313232
-0.345501303672790527 -0.104596853256225586 0.216425567865371704
0.114627070724964142 0.11858493834733963 -0.110818259418010712
0.065555281937122345 -0.287107586860656738 -0.00946253538131713867
0.14772525429725647 0.106144711375236511 -0.0638198330998420715
0.263319790363311768 0.0265843700617551804 -0.132121086120605469
0.0393127277493476868 0.18924298882484436 -0.355022668838500977
0.120540231466293335 -0.155095800757408142 0.16651579737663269
0.242832064628601074 -0.147706732153892517 -0.109645098447799683
-0.178332805633544922 0.223383128643035889 0.0888338983058929443
0.0951336994767189026 0.0635487809777259827 0.0478687696158885956
-0.296663403511047363 0.0530101321637630463 0.0316921472549438477
0.208402737975120544 -0.0310254413634538651 0.0240139570087194443
-0.122473329305648804 -0.244236648082733154 0.311422199010848999
-0.0464637167751789093 0.109582707285881042 0.11978757381439209
-0.121196761727333069 -0.0656083971261978149 -0.014574103057384491
-0.0991066098213195801 0.10882103443145752 0.167484059929847717
0.13981357216835022 0.0244656987488269806 -0.27590489387512207
-0.297664403915405273 -0.0759388357400894165 0.120586216449737549
0.17316804826259613 -0.206665754318237305 -0.110476650297641754
0.078723713755607605 0.131371274590492249 -0.170719414949417114
-0.123924940824508667 -0.169034868478775024 0.315627753734588623
-0.0079750455915927887 0.200155764818191528 -0.0355079621076583862
-0.194253921508789062 0.235013186931610107 -0.000610975548624992371
-0.0885650515556335449 0.262050926685333252 -0.0377568528056144714
0.124592557549476624 -0.180319681763648987 -0.134886056184768677
-0.237926244735717773 0.167016923427581787 0.0377542003989219666
-0.189528793096542358 -0.250119447708129883 0.260977625846862793
0.171010047197341919 -0.0373714938759803772 0.0615854784846305847
-0.267694056034088135 0.0713837891817092896 0.209982305765151978
0.100293166935443878 -0.383601963520050049 0.178078830242156982
-0.160596564412117004 -0.0973829030990600586 0.0320921093225479126
-0.213584288954734802 -0.174956366419792175 0.116546213626861572
-0.220856443047523499 -0.023601870983839035 0.287990599870681763
0.205971688032150269 -0.321173578500747681 0.131505593657493591
-0.277756959199905396 0.0742856487631797791 0.176667153835296631
-0.153786435723304749 0.278356015682220459 -0.00597143545746803284
-0.0771705508232116699 0.0209259036928415298 -0.125975191593170166
0.123038962483406067 0.0928820520639419556 -0.202145695686340332
-0.119898781180381775 0.2875022292137146 -0.0711545944213867188
0.206351369619369507 -0.0858828872442245483 -0.237329244613647461
0.131506845355033875 -0.137530744075775146 0.140370175242424011
0.229191958904266357 0.0620186738669872284 -0.086854197084903717
0.224878668785095215 -0.277358651161193848 0.0478766597807407379
0.148345544934272766 -0.0404733121395111084 -0.257457047700881958
0.174183443188667297 0.067649349570274353 -0.0250742658972740173
-0.106273837387561798 0.204059407114982605 0.0912227407097816467
-0.0790880694985389709 0.230730563402175903 0.0320680998265743256
-0.222187012434005737 -0.238357499241828918 0.238463163375854492
-0.104539081454277039 -0.0482638627290725708 -0.036887630820274353
0.101518847048282623 0.121484175324440002 -0.0172619707882404327
-0.135594308376312256 0.102289333939552307 0.197390496730804443
0.189419165253639221 -0.053239431232213974 -0.26623159646987915
0.143265679478645325 -0.283155322074890137 0.221186071634292603
-0.106370493769645691 0.230233281850814819 0.04813404381275177
-0.0659208446741104126 -0.0780233591794967651 0.254468053579330444
0.16956755518913269 -0.140297994017601013 -0.169282048940658569
-0.31722751259803772 -0.0233294684439897537 0.110928229987621307
-0.242731630802154541 -0.0388274863362312317 0.0693245977163314819
-0.134247377514839172 0.127488180994987488 -0.16823086142539978
-0.0490061827003955841 0.0950454249978065491 -0.200602591037750244
0.150189310312271118 0.0826925709843635559 -0.0149989882484078407
0.0805740803480148315 -0.397324621677398682 0.0503017641603946686
-0.041771862655878067 -0.0337210185825824738 -0.111702688038349152
-0.265783369541168213 0.0969515666365623474 0.0156008796766400337
-0.0146578140556812286 -0.289427965879440308 0.293890833854675293
-0.20091402530670166 0.0963249802589416504 0.25288844108581543
0.0967117622494697571 0.130981042981147766 -0.0448568537831306458
0.182770892977714539 -0.325638294219970703 0.190579742193222046
0.0717963948845863342 0.137411370873451233 -0.00696065835654735565
0.244716569781303406 -0.105928659439086914 0.0586197003722190857
0.181153371930122375 -0.0219168923795223236 0.0370521694421768188
-0.0633331313729286194 0.156295165419578552 -0.231990724802017212
-0.21995660662651062 0.159982949495315552 -0.104478843510150909
0.26105731725692749 -0.183714300394058228 0.0862863212823867798
-0.222679406404495239 -0.0693744570016860962 0.308609336614608765
0.223897784948348999 0.0100521985441446304 -0.287004798650741577
0.0523501783609390259 -0.383704155683517456 0.05739554762840271
0.231277018785476685 -0.187120884656906128 -0.0738002657890319824
-0.306631863117218018 0.0556351132690906525 0.0878596007823944092
-0.0316987857222557068 0.0241762101650238037 0.165365219116210938
-0.0154049694538116455 0.195310920476913452 -0.255725592374801636
-0.214265614748001099 -0.271427363157272339 0.221397861838340759
0.0329303070902824402 -0.387525498867034912 0.157937347888946533
0.158338919281959534 -0.124581687152385712 0.125679314136505127
-0.184099256992340088 0.0257895886898040771 0.294718712568283081
-0.0587342903017997742 -0.291262000799179077 0.270219087600708008
-0.113644689321517944 0.208588466048240662 -0.238819032907485962
-0.000790547579526901245 -0.201811552047729492 -0.01272573322057724
0.143714383244514465 -0.197071671485900879 -0.135965913534164429
-0.118872635066509247 -0.0116596631705760956 -0.0689683184027671814
-0.0601406842470169067 -0.0764273479580879211 -0.0644575431942939758
-0.00420365110039710999 0.167367339134216309 -0.215369939804077148
0.079314887523651123 -0.318775594234466553 -0.00555222481489181519
-0.0894408375024795532 -0.0221564285457134247 0.247297316789627075
-0.00406811758875846863 -0.335689425468444824 0.2306203693151474
-0.165721163153648376 0.0462327487766742706 -0.0719090104103088379
0.0744412392377853394 0.127688974142074585 -0.0626114234328269958
0.153442740440368652 -0.312896609306335449 0.221537470817565918
-0.0175644475966691971 -0.373919188976287842 0.139390990138053894
-0.302793920040130615 0.00558115541934967041 0.193678289651870728
-0.0906276851892471313 -0.133983924984931946 0.0060718730092048645
-0.00311008840799331665 0.177584826946258545 -0.00162466522306203842
-0.189658641815185547 0.21428072452545166 -0.136537104845046997
-0.164542108774185181 -0.145039930939674377 0.082979448139667511
-0.0340583920478820801 0.20586046576499939 0.0179042480885982513
0.207154124975204468 -0.189098432660102844 -0.129128351807594299
-0.179703965783119202 0.233621209859848022 -0.122959308326244354
-0.308898448944091797 -0.207753375172615051 0.250759214162826538
0.0324222594499588013 0.0782783329486846924 0.073641359806060791
-0.254370748996734619 -0.123931869864463806 0.115147069096565247
0.0630419701337814331 0.154448240995407104 -0.0606498271226882935
-0.0454261116683483124 -0.217207610607147217 0.332974255084991455
0.0159286968410015106 -0.296051681041717529 0.290393292903900146
0.156881242990493774 -0.0126450695097446442 0.0479326844215393066
-0.158129498362541199 0.262800902128219604 -0.138686597347259521
0.220737576484680176 -0.172736749053001404 0.0978084281086921692
0.17031523585319519 -0.338173449039459229 0.0601597465574741364
-0.153875589370727539 -0.00309136323630809784 -0.0570956021547317505
-0.107360079884529114 -0.164726376533508301 0.35208737850189209
0.230751246213912964 0.0503541268408298492 -0.197678297758102417
-0.258905589580535889 0.0955210775136947632 0.191158309578895569
0.160374850034713745 -0.393749058246612549 0.0929970964789390564
0.160598933696746826 0.0811624974012374878 -0.196129381656646729
-0.119062043726444244 -0.210670232772827148 0.0756933540105819702
0.12881016731262207 -0.226869374513626099 -0.102343097329139709
-0.0229487847536802292 0.0614399611949920654 -0.208302050828933716
-0.00348475389182567596 -0.0386959537863731384 -0.12901914119720459
0.230004876852035522 -0.258989274501800537 0.0999699831008911133
-0.0255292505025863647 0.212464109063148499 -0.0573511496186256409
0.0918583422899246216 0.0060482807457447052 0.0908157825469970703
0.238479107618331909 -0.0894535034894943237 0.0550975166261196136
-0.29508286714553833 -0.0640242472290992737 0.244942277669906616
-0.089008525013923645 -0.308357387781143188 0.126874089241027832
-0.0334343016147613525 0.202461943030357361 -0.138059541583061218
0.185142263770103455 -0.231062978506088257 0.166568532586097717
-0.14027443528175354 -0.126488998532295227 0.052710164338350296
0.145776525139808655 -0.11686774343252182 -0.20442277193069458
-0.0249514281749725342 -0.26746821403503418 0.032161366194486618
0.285788357257843018 0.00945625361055135727 -0.202301725745201111
0.146808639168739319 -0.335059076547622681 0.225446715950965881
-0.186148703098297119 0.159873858094215393 -0.154772356152534485
0.080326668918132782 -0.352978110313415527 0.0118348188698291779
0.147804021835327148 -0.405663430690765381 0.129584670066833496
-0.266915440559387207 0.105074934661388397 0.129786223173141479
0.206596121191978455 -0.0397701747715473175 0.0374257564544677734
-0.151605576276779175 0.180850416421890259 -0.182655602693557739
-0.162512063980102539 0.235249578952789307 -0.100764065980911255
0.0393343120813369751 0.167741388082504272 -0.0124737191945314407
-0.0830863267183303833 0.194145470857620239 -0.252242982387542725
0.229102596640586853 -0.0316160023212432861 -0.255480527877807617
-0.121076188981533051 0.221150666475296021 0.0878149569034576416
-0.138703227043151855 0.215885698795318604 -0.213082015514373779
0.156912490725517273 -0.361590981483459473 0.129824414849281311
0.23310476541519165 0.0597492530941963196 -0.114180430769920349
-0.0869860798120498657 0.236587017774581909 -0.0628896951675415039
0.139198422431945801 0.00812848471105098724 0.0524830147624015808
-0.245695546269416809 -0.251252591609954834 0.24932330846786499
0.141618102788925171 -0.358763992786407471 0.00138908252120018005
-0.0945822447538375854 0.154638588428497314 0.121676638722419739
0.0188263934105634689 -0.203115284442901611 -0.0303807258605957031
-0.0575112178921699524 -0.196485728025436401 0.0241233594715595245
0.138340607285499573 0.0686664804816246033 -0.0362758487462997437
-0.0955776646733283997 0.27591174840927124 -0.2405519038438797
-0.162521928548812866 0.266358792781829834 0.0258903112262487411
0.0173822417855262756 0.127126306295394897 -0.290237158536911011
0.161718025803565979 -0.297158032655715942 -0.0497055575251579285
0.15774691104888916 -0.366346418857574463 0.0293931495398283005
-0.225348919630050659 -0.19185522198677063 0.293723881244659424
-0.294463753700256348 -0.00101363472640514374 0.06336946040391922
-0.295433521270751953 0.0606129243969917297 0.117251873016357422
0.177343830466270447 -0.298053741455078125 -0.0100026801228523254
0.0498900115489959717 0.170180022716522217 -0.348019719123840332
-0.0449910908937454224 0.151227205991744995 -0.252774924039840698
-0.0493954941630363464 0.225260615348815918 -0.00888387858867645264
-0.337231576442718506 -0.0343615338206291199 0.146133154630661011
0.12138521671295166 -0.0904701650142669678 -0.207433938980102539
0.0227113887667655945 -0.274400234222412109 0.0113444551825523376
0.0932603627443313599 -0.363286197185516357 0.00934913754463195801
-0.0854651033878326416 0.0233771763741970062 0.217587471008300781
0.107966214418411255 -0.18875160813331604 0.193129152059555054
0.29800984263420105 -0.0691827014088630676 -0.0226769521832466125
0.0859018266201019287 0.133126631379127502 -0.0261544175446033478
0.194964095950126648 -0.297870457172393799 0.0038939397782087326
0.151173099875450134 -0.351491361856460571 0.00254122726619243622
0.0144467921927571297 0.0666273459792137146 -0.227033883333206177
0.00769738480448722839 -0.171284943819046021 0.249160811305046082
-0.244477167725563049 -0.0813394635915756226 0.332427471876144409
-0.113050937652587891 0.271843522787094116 -0.236249238252639771
0.135989263653755188 0.0323516540229320526 -0.246769875288009644
-0.0452532395720481873 0.00871233269572257996 -0.153064966201782227
0.0286665335297584534 -0.0430613309144973755 -0.168638050556182861
-0.146624207496643066 -0.0246749892830848694 0.285513758659362793
0.171195298433303833 -0.324271559715270996 -0.0031747967004776001
0.251387625932693481 -0.164561003446578979 -0.0694609954953193665
0.0151861608028411865 0.172972813248634338 -0.163883060216903687
0.134555771946907043 0.0388107970356941223 0.00724985823035240173
0.000446813181042671204 -0.39019244909286499 0.142702147364616394
0.192185357213020325 -0.148555070161819458 -0.177577465772628784
-0.244590386748313904 -0.156362861394882202 0.338864147663116455
0.05338321253657341 0.104626968502998352 -0.291256725788116455
0.131714776158332825 -0.317126542329788208 0.238247185945510864
0.0678189918398857117 0.0542174391448497772 -0.258966296911239624
0.142336294054985046 -0.262385189533233643 -0.0924861058592796326
-0.110233716666698456 0.252135306596755981 -0.248406916856765747
-0.120629891753196716 0.0629634186625480652 -0.121727913618087769
-0.0794814527034759521 0.196547433733940125 0.0760782361030578613
-0.172756433486938477 -0.160832703113555908 0.357122629880905151
0.0322402939200401306 0.152906507253646851 -0.272540748119354248
-0.183374598622322083 0.252000987529754639 -0.0171868316829204559
0.29575878381729126 -0.0752326920628547668 -0.0712975859642028809
-0.152892142534255981 0.295779526233673096 -0.0762703865766525269
0.230540603399276733 -0.271059334278106689 0.0836443454027175903
0.155958607792854309 0.0770705416798591614 -0.202540099620819092
-0.14460638165473938 -0.070616208016872406 0.320670992136001587
-0.0712101906538009644 -0.0665221214294433594 -0.049294598400592804
0.298708200454711914 -0.00434415414929389954 -0.147368684411048889
-0.159895971417427063 0.27101057767868042 -0.00280601531267166138
-0.205571025609970093 0.12189222127199173 0.227907657623291016
0.0396279171109199524 0.142093658447265625 -0.311817348003387451
0.127174809575080872 -0.0892065092921257019 -0.207479313015937805
-0.218406125903129578 0.144309386610984802 -0.0886307582259178162
-0.115736678242683411 0.290137141942977905 -0.207564771175384521
0.119969889521598816 0.0741469785571098328 0.000461343675851821899
-0.0455297157168388367 0.209325790405273438 -0.234337210655212402
-0.0806446745991706848 0.0302314125001430511 -0.121808573603630066
0.049029327929019928 0.00707001984119415283 0.112430267035961151
0.0825577080249786377 0.113931953907012939 0.0167357735335826874
0.29556003212928772 -0.0556090250611305237 -0.108852431178092957
0.0177712775766849518 0.0519249550998210907 0.115934953093528748
-0.168268859386444092 0.19726717472076416 0.146486848592758179
-0.0374657437205314636 -0.281022727489471436 0.0508622638881206512
0.225992336869239807 -0.00558074191212654114 -0.189088344573974609
-0.0830617621541023254 -0.329205513000488281 0.105303570628166199
0.180347412824630737 -0.291268438100814819 -0.0310581885278224945
0.00719361100345849991 0.185397014021873474 -0.292561650276184082
-0.196404412388801575 0.139476865530014038 0.149773433804512024
-0.320862323045730591 0.016221221536397934 0.0864698141813278198
