ply
format ascii 1.0
element vertex 722
comment vertices
property float x
property float y
property float z
end_header
-0.239698529243469238 -0.055539991706609726 0.0500308014452457428
-0.21974886953830719 0.0142041007056832314 -0.0139149697497487068
-0.231327518820762634 -0.0215765368193387985 0.0199342556297779083
-0.214899316430091858 0.0398084335029125214 -0.0354698188602924347
-0.234763681888580322 -0.0279276017099618912 0.027014533057808876
-0.284622669219970703 -0.197179913520812988 0.183318167924880981
-0.288832217454910278 -0.209570348262786865 0.195195049047470093
-0.281987458467483521 -0.184393897652626038 0.172388628125190735
-0.272977352142333984 -0.130799621343612671 0.128156274557113647
-0.217942371964454651 0.0607689134776592255 -0.0476710349321365356
-0.271591663360595703 -0.116525530815124512 0.117162778973579407
-0.283135682344436646 -0.156023129820823669 0.153567716479301453
-0.223092317581176758 0.0610379353165626526 -0.0438600406050682068
-0.229886740446090698 0.0388782955706119537 -0.0231887996196746826
-0.211538374423980713 0.104546710848808289 -0.0830596759915351868
-0.256166368722915649 -0.0419893786311149597 0.053399696946144104
-0.26908537745475769 -0.084959864616394043 0.0932850241661071777
-0.280153781175613403 -0.119362346827983856 0.125780597329139709
-0.227681145071983337 0.0654338672757148743 -0.0433520637452602386
-0.221579357981681824 0.0869832336902618408 -0.0630615875124931335
-0.227388083934783936 0.0680297017097473145 -0.0453831888735294342
-0.219410255551338196 0.0998847857117652893 -0.0737095847725868225
-0.288471817970275879 -0.136259481310844421 0.143978193402290344
-0.257397294044494629 -0.0100653627887368202 0.0321741551160812378
-0.225415945053100586 0.102491088211536407 -0.0708582550287246704
-0.295927643775939941 -0.137861713767051697 0.150879383087158203
-0.244212239980697632 0.0528484620153903961 -0.0217745117843151093
-0.247412890195846558 0.0575769916176795959 -0.0225752722471952438
-0.291143178939819336 -0.0767030492424964905 0.104671590030193329
-0.247673824429512024 0.0772840008139610291 -0.0360653363168239594
-0.228372588753700256 0.14454159140586853 -0.0977800861001014709
-0.249240785837173462 0.0754512399435043335 -0.0335754714906215668
-0.257315993309020996 0.0490455366671085358 -0.00895976647734642029
-0.325681984424591064 -0.187517285346984863 0.208478853106498718
-0.251151323318481445 0.072061389684677124 -0.0297370124608278275
-0.284180045127868652 -0.039407927542924881 0.073353104293346405
-0.27582213282585144 -0.00608513969928026199 0.0437118671834468842
-0.296631336212158203 -0.0775115266442298889 0.109493784606456757
-0.240329042077064514 0.122878789901733398 -0.0734467804431915283
-0.332058161497116089 -0.194909825921058655 0.218565091490745544
-0.249966233968734741 0.0955620333552360535 -0.046985480934381485
-0.264203757047653198 0.0511193498969078064 -0.00505369016900658607
-0.243542283773422241 0.126285076141357422 -0.0733190551400184631
-0.245825141668319702 0.123973414301872253 -0.0699407011270523071
-0.262863725423812866 0.0690637454390525818 -0.0185618959367275238
-0.249473467469215393 0.122577071189880371 -0.0661383122205734253
-0.313898831605911255 -0.0917869582772254944 0.132817253470420837
-0.300549775362014771 -0.0443886779248714447 0.0895216017961502075
-0.244520485401153564 0.152755334973335266 -0.0909514576196670532
-0.31133696436882019 -0.0773799270391464233 0.120818346738815308
-0.295386016368865967 -0.0215037446469068527 0.0696123093366622925
-0.279630929231643677 0.0374448560178279877 0.0164235904812812805
-0.32869565486907959 -0.12290249764919281 0.165923401713371277
-0.300960630178451538 -0.0242823995649814606 0.0758705213665962219
-0.286884307861328125 0.0341975465416908264 0.0243106689304113388
-0.307553678750991821 -0.0362196974456310272 0.0892828702926635742
-0.294854074716567993 0.019498748704791069 0.04071044921875
-0.337794184684753418 -0.117528468370437622 0.169252678751945496
-0.291222423315048218 0.0450632199645042419 0.0201287735253572464
-0.301031440496444702 0.0179087258875370026 0.0466106981039047241
-0.344021528959274292 -0.130659133195877075 0.183210253715515137
-0.339175522327423096 -0.104417756199836731 0.16121557354927063
-0.30027356743812561 0.0388637632131576538 0.0314626134932041168
-0.285166680812835693 0.0919319316744804382 -0.0171371400356292725
-0.32671782374382019 -0.0522374510765075684 0.115289278328418732
-0.353507786989212036 -0.133562713861465454 0.192591890692710876
-0.355459392070770264 -0.135729849338531494 0.195612668991088867
-0.289597541093826294 0.0949641838669776917 -0.0158042851835489273
-0.346071839332580566 -0.0938707366585731506 0.159240990877151489
-0.281289249658584595 0.133521586656570435 -0.0490440577268600464
-0.32337421178817749 -0.00646797521039843559 0.0808925703167915344
-0.356143265962600708 -0.119327723979949951 0.184747219085693359
-0.287456661462783813 0.121046774089336395 -0.0355886854231357574
-0.297993957996368408 0.0958302170038223267 -0.00988786574453115463
-0.340301930904388428 -0.0476959683001041412 0.122679188847541809
0.156394675374031067 -0.256315350532531738 -0.117955826222896576
-0.0335588790476322174 -0.379048168659210205 0.114781118929386139
0.121235132217407227 -0.382447808980941772 -0.00302325189113616943
-0.222429379820823669 0.157819092273712158 -0.11161881685256958
0.0315781384706497192 0.185030683875083923 -0.327711731195449829
0.13522966206073761 -0.336581289768218994 -0.0457555502653121948
-0.0412377454340457916 -0.376085788011550903 0.118684299290180206
-0.297104477882385254 -0.220060259103775024 0.208905801177024841
-0.317710816860198975 0.0422515422105789185 0.042645920068025589
-0.128725036978721619 0.251886129379272461 -0.249719798564910889
0.139847904443740845 -0.329638659954071045 -0.0541640110313892365
0.0519275553524494171 0.173760488629341125 -0.335677862167358398
-0.322470873594284058 0.0331429056823253632 0.0526703223586082458
-0.080050542950630188 -0.355449587106704712 0.134477093815803528
-0.152085408568382263 0.174644961953163147 -0.177916839718818665
0.153409421443939209 -0.29026418924331665 -0.0920491665601730347
-0.123007096350193024 -0.330518394708633423 0.150502130389213562
0.0869202986359596252 0.153551682829856873 -0.348801016807556152
-0.139724060893058777 0.221279248595237732 -0.219914510846138
-0.131977245211601257 0.248917952179908752 -0.245131924748420715
-0.131512954831123352 0.262756854295730591 -0.255106478929519653
-0.141805052757263184 0.226993173360824585 -0.222267761826515198
0.153393536806106567 -0.293628066778182983 -0.0896935239434242249
-0.328152388334274292 0.0217949524521827698 0.0649725869297981262
0.130363225936889648 -0.0470157451927661896 -0.243160158395767212
0.0912870094180107117 0.155213341116905212 -0.353331029415130615
-0.267195135354995728 0.167170196771621704 -0.0833425447344779968
0.14813174307346344 0.0673438087105751038 -0.336398571729660034
-0.227635383605957031 0.163785383105278015 -0.111697137355804443
-0.28774261474609375 0.152019232511520386 -0.0568591766059398651
-0.283625125885009766 0.15713164210319519 -0.0635997429490089417
0.108263880014419556 -0.426172792911529541 0.0374696515500545502
-0.171995162963867188 0.141975849866867065 -0.139719977974891663
0.129425793886184692 -0.00400254083797335625 -0.272285163402557373
0.0642004609107971191 0.173403620719909668 -0.344909518957138062
0.0675423592329025269 -0.442217737436294556 0.0802370831370353699
0.0875043347477912903 0.159650370478630066 -0.353434830904006958
0.151071950793266296 0.0662863403558731079 -0.337910920381546021
-0.278100758790969849 0.165251895785331726 -0.0735052451491355896
-0.029162675142288208 0.231065720319747925 -0.312483131885528564
0.120202235877513885 0.140452802181243896 -0.365464061498641968
0.0797542333602905273 0.165275931358337402 -0.351309239864349365
0.134907573461532593 0.00348449894227087498 -0.281706452369689941
0.148120179772377014 0.0483069606125354767 -0.323103010654449463
0.13363240659236908 -0.00213560624979436398 -0.276807904243469238
0.0215460862964391708 -0.423138350248336792 0.102722048759460449
-0.131091400980949402 0.283101499080657959 -0.26948198676109314
-0.100021637976169586 0.275812268257141113 -0.288536280393600464
-0.13210730254650116 0.280143499374389648 -0.266635417938232422
0.00620571756735444069 0.211290702223777771 -0.326163142919540405
-0.365410894155502319 -0.102196104824542999 0.180137276649475098
0.0934699252247810364 0.158124580979347229 -0.356963366270065308
-0.373769432306289673 -0.127036884427070618 0.203889057040214539
-0.276380568742752075 -0.242292672395706177 0.20837363600730896
-0.210489839315414429 -0.282821387052536011 0.185388445854187012
0.128626883029937744 -0.386659473180770874 -0.00571691151708364487
0.196542456746101379 -0.15521182119846344 -0.219240888953208923
0.118713416159152985 -0.422848999500274658 0.0271723661571741104
-0.294858396053314209 -0.230522125959396362 0.214600592851638794
-0.362569749355316162 -0.0876322612166404724 0.167889758944511414
0.0312658697366714478 0.19690433144569397 -0.335543394088745117
-0.218293502926826477 0.166177570819854736 -0.120460338890552521
-0.339589804410934448 -0.200373157858848572 0.228409364819526672
0.0451755262911319733 -0.436588495969772339 0.0938622429966926575
-0.365694969892501831 -0.0942566469311714172 0.174988299608230591
-0.341633468866348267 -0.0104534095153212547 0.0980848520994186401
0.148183614015579224 0.046179700642824173 -0.321504652500152588
-0.347586095333099365 -0.0268316734582185745 0.114156611263751984
0.149225756525993347 -0.330778956413269043 -0.060282580554485321
0.134949088096618652 -0.380848169326782227 -0.0144016221165657043
-0.205854415893554688 0.161184579133987427 -0.126398161053657532
0.165475577116012573 0.104626409709453583 -0.375346869230270386
0.076531141996383667 0.169876277446746826 -0.351585686206817627
0.0375437550246715546 -0.434710949659347534 0.0988038033246994019
0.102330572903156281 -0.444169104099273682 0.0552602298557758331
-0.144550278782844543 0.243103459477424622 -0.230607092380523682
0.180625587701797485 -0.224628612399101257 -0.158017069101333618
0.0464396104216575623 -0.440094619989395142 0.0960369035601615906
0.124841071665287018 -0.419324219226837158 0.0207643788307905197
-0.0265472568571567535 -0.39617687463760376 0.122440382838249207
-0.376739263534545898 -0.120864927768707275 0.203088104724884033
0.171641215682029724 -0.259402871131896973 -0.126343876123428345
0.180322393774986267 -0.230067908763885498 -0.153337493538856506
0.187300443649291992 -0.206648856401443481 -0.174899637699127197
0.148666679859161377 0.127918243408203125 -0.377360373735427856
0.204399853944778442 -0.149227350950241089 -0.227787628769874573
-0.0644444003701210022 0.258725821971893311 -0.302474796772003174
0.188582524657249451 -0.204828396439552307 -0.176761060953140259
-0.28443753719329834 0.170992225408554077 -0.0705850347876548767
-0.298948466777801514 0.151986941695213318 -0.0460724197328090668
-0.358707427978515625 -0.0536712780594825745 0.143277019262313843
0.146248921751976013 0.130739673972129822 -0.376757651567459106
-0.130464345216751099 0.299214601516723633 -0.278921365737915039
-0.215417385101318359 -0.281733930110931396 0.190715625882148743
-0.375313699245452881 -0.110131971538066864 0.195646107196807861
-0.115257434546947479 0.290763437747955322 -0.284761935472488403
-0.218397483229637146 -0.27997317910194397 0.191881462931632996
-0.154877722263336182 -0.318830966949462891 0.169645950198173523
0.194241538643836975 -0.0905142277479171753 -0.259987145662307739
-0.353685885667800903 -0.0342634879052639008 0.126347452402114868
-0.364152997732162476 -0.0694066435098648071 0.159585490822792053
0.180846661329269409 -0.0720322057604789734 -0.261670023202896118
-0.362653851509094238 -0.0641973614692687988 0.154805973172187805
-0.327794969081878662 0.0567050613462924957 0.0442654639482498169
0.18980070948600769 -0.208476826548576355 -0.173221051692962646
0.201392516493797302 -0.16831091046333313 -0.209971949458122253
0.0199401248246431351 0.197992220520973206 -0.323522269725799561
0.135668173432350159 0.139355316758155823 -0.372377991676330566
-0.171575874090194702 -0.307947903871536255 0.177063778042793274
0.145345002412796021 -0.0459912829101085663 -0.250725924968719482
0.0191427487879991531 0.201733827590942383 -0.324853807687759399
0.092588081955909729 -0.450859397649765015 0.0716067105531692505
-0.00628801342099905014 0.210692360997200012 -0.311273843050003052
-0.110502563416957855 -0.345113486051559448 0.155823290348052979
0.162492215633392334 -0.305335432291030884 -0.0836026296019554138
-0.246152728796005249 -0.262194514274597168 0.203675448894500732
0.159638404846191406 0.125275447964668274 -0.380555182695388794
0.185877755284309387 -0.224314361810684204 -0.15789833664894104
0.0507329963147640228 0.191806241869926453 -0.341865271329879761
-0.290778368711471558 -0.234724074602127075 0.219851672649383545
0.152841150760650635 -0.340233772993087769 -0.051080707460641861
0.109098099172115326 0.156774058938026428 -0.362448215484619141
0.165093347430229187 -0.297759383916854858 -0.0900385826826095581
0.0269111432135105133 0.182710900902748108 -0.316455274820327759
0.210299462080001831 -0.130856290459632874 -0.24072873592376709
-0.0073103616014122963 0.209016889333724976 -0.307726651430130005
-0.351152658462524414 -0.0248949248343706131 0.122121945023536682
-0.370000839233398438 -0.160466477274894714 0.231187805533409119
0.20809367299079895 -0.114003933966159821 -0.249601438641548157
-0.29812207818031311 0.15527789294719696 -0.043612893670797348
0.158426329493522644 -0.0515531599521636963 -0.25417637825012207
0.189831182360649109 -0.214960262179374695 -0.164929598569869995
0.163645714521408081 0.0664007365703582764 -0.339905977249145508
-0.136142566800117493 0.280416250228881836 -0.255868881940841675
-0.0343425832688808441 -0.390408843755722046 0.131250903010368347
-0.362967491149902344 -0.173530444502830505 0.235912039875984192
-0.371332406997680664 -0.0953287482261657715 0.188249975442886353
-0.00129981408827006817 0.224978059530258179 -0.321458995342254639
-0.154714912176132202 -0.316678673028945923 0.173987194895744324
-0.0749461501836776733 -0.365256160497665405 0.146180897951126099
-0.34780457615852356 -0.0136647801846265793 0.113863132894039154
0.0198581106960773468 0.212178081274032593 -0.328404754400253296
0.0293752606958150864 0.206351011991500854 -0.331736892461776733
0.0502762757241725922 0.190685778856277466 -0.336900383234024048
-0.00883019156754016876 0.228568345308303833 -0.317273169755935669
-0.113645248115062714 0.23914945125579834 -0.243104889988899231
-0.0974724665284156799 0.282430589199066162 -0.285559386014938354
-0.238412037491798401 0.18428376317024231 -0.107702732086181641
0.124214746057987213 0.0905669629573822021 -0.324069768190383911
-0.0634460747241973877 0.241989150643348694 -0.283579200506210327
0.144508093595504761 -0.375950634479522705 -0.0156185701489448547
-0.0868178233504295349 0.256818264722824097 -0.275674134492874146
0.106604702770709991 0.0128385080024600029 -0.256297439336776733
0.129419058561325073 0.0990818515419960022 -0.333866417407989502
0.121332041919231415 0.0839131250977516174 -0.316919207572937012
0.0631850436329841614 0.182623311877250671 -0.340236246585845947
-0.0771410763263702393 0.262069553136825562 -0.286487668752670288
-0.123056843876838684 0.179917454719543457 -0.193758025765419006
0.0671054497361183167 -0.447191357612609863 0.094378545880317688
0.0954020395874977112 0.15870492160320282 -0.348555535078048706
0.111882507801055908 0.0326897837221622467 -0.273773789405822754
-0.056187748908996582 0.247287750244140625 -0.292348563671112061
-0.0493535920977592468 0.234127730131149292 -0.288502335548400879
-0.105542488396167755 0.269729077816009521 -0.269577354192733765
-0.120696008205413818 0.188295841217041016 -0.201145365834236145
0.056233622133731842 0.180126816034317017 -0.332757085561752319
0.125989630818367004 0.0510869845747947693 -0.297159880399703979
-0.0401905104517936707 0.22910618782043457 -0.291712671518325806
-0.00636235903948545456 0.181207284331321716 -0.284686297178268433
-0.00663726497441530228 0.191824659705162048 -0.291849613189697266
-0.114749275147914886 0.268508106470108032 -0.26091805100440979
0.0449039824306964874 0.166260018944740295 -0.313745945692062378
-0.0614597238600254059 0.236995011568069458 -0.280084371566772461
0.13992290198802948 -0.0350609049201011658 -0.247074410319328308
0.0951125994324684143 0.00540860835462808609 -0.240243732929229736
-0.0103867491707205772 0.176865190267562866 -0.276717096567153931
-0.354906082153320312 -0.181620329618453979 0.239813715219497681
0.119007177650928497 0.120831847190856934 -0.338136434555053711
-0.0819150879979133606 0.245144590735435486 -0.268428266048431396
0.151285156607627869 0.0803612694144248962 -0.334875196218490601
-0.151019901037216187 0.157072648406028748 -0.153386592864990234
0.154066100716590881 0.0882418602705001831 -0.342377066612243652
0.0971883013844490051 0.0220481939613819122 -0.252222299575805664
-0.238085120916366577 -0.263277232646942139 0.206352934241294861
-0.134155347943305969 0.28282436728477478 -0.253007024526596069
-0.11757475882768631 0.131741806864738464 -0.16081644594669342
-0.121365435421466827 0.266769379377365112 -0.251632630825042725
0.0645345300436019897 0.156314492225646973 -0.319161027669906616
-0.368216603994369507 -0.156832575798034668 0.234485089778900146
0.0143446642905473709 0.154951184988021851 -0.278589129447937012
0.146657124161720276 -0.00178329041227698326 -0.272211015224456787
-0.327128052711486816 0.0510775372385978699 0.0588603951036930084
-0.32841789722442627 0.0463810116052627563 0.0633282661437988281
0.118036150932312012 0.115726888179779053 -0.331385701894760132
-0.108220227062702179 0.148962661623954773 -0.178767040371894836
-0.144071832299232483 0.246008247137069702 -0.218319728970527649
-0.110373757779598236 0.137712866067886353 -0.16869780421257019
0.148952186107635498 0.0547889620065689087 -0.312257140874862671
0.174270838499069214 -0.278531461954116821 -0.100278362631797791
-0.1449461430311203 0.18695029616355896 -0.175832569599151611
0.112706571817398071 0.0887673497200012207 -0.307588696479797363
0.108490578830242157 0.0741329491138458252 -0.294146746397018433
-0.106874369084835052 0.145625486969947815 -0.176255017518997192
-0.125171676278114319 0.259636789560317993 -0.241139993071556091
0.163704469799995422 0.103314578533172607 -0.356720417737960815
0.0156020540744066238 0.15208946168422699 -0.275469362735748291
-0.147996395826339722 0.178601160645484924 -0.166789516806602478
0.168681174516677856 -0.299162328243255615 -0.0803826674818992615
-0.0421518236398696899 0.218636244535446167 -0.276252388954162598
-0.301164031028747559 0.140236392617225647 -0.0205363892018795013
0.122264564037322998 -0.0183022860437631607 -0.239048674702644348
0.0018667320255190134 0.159681797027587891 -0.269174039363861084
0.15393376350402832 0.0205014944076538086 -0.290472507476806641
0.0961447060108184814 0.133894100785255432 -0.324321568012237549
0.0997589975595474243 0.0543938241899013519 -0.271816641092300415
-0.116703450679779053 0.290721774101257324 -0.267759084701538086
0.0926837697625160217 0.00167251995299011469 -0.229447707533836365
-0.321182548999786377 -0.209402918815612793 0.23865741491317749
-0.259208410978317261 -0.247395887970924377 0.217231124639511108
0.057609260082244873 -0.439654171466827393 0.105079546570777893
0.0781379640102386475 0.144075214862823486 -0.316280275583267212
0.173903107643127441 -0.282875955104827881 -0.0938569456338882446
-0.0926299542188644409 0.176777109503746033 -0.205865323543548584
0.0690002888441085815 -0.443755686283111572 0.0999577939510345459
-0.291035294532775879 0.165589913725852966 -0.0439146123826503754
-0.206695124506950378 -0.278846800327301025 0.199456006288528442
0.146485313773155212 -0.379111409187316895 -0.00473884819075465202
-0.245257362723350525 -0.254978567361831665 0.213368728756904602
-0.0886624902486801147 0.186501249670982361 -0.214920774102210999
-0.0147568536922335625 0.119210131466388702 -0.225473806262016296
-0.0175054650753736496 0.102027513086795807 -0.211401373147964478
-0.0202848389744758606 0.099240623414516449 -0.207307025790214539
-0.0282583814114332199 0.138142839074134827 -0.228146761655807495
-0.0252758655697107315 0.111497148871421814 -0.211948126554489136
-0.0381988175213336945 0.112736426293849945 -0.202777087688446045
-0.0496638529002666473 0.119797453284263611 -0.198705568909645081
-0.304228037595748901 0.125151082873344421 -0.00466123223304748535
-0.063825458288192749 0.110050074756145477 -0.180764421820640564
-0.0205827783793210983 0.144145801663398743 -0.237993553280830383
-0.0510240234434604645 0.125146985054016113 -0.201154023408889771
-0.0808726847171783447 0.210576534271240234 -0.237197965383529663
-0.0831256508827209473 -0.353718072175979614 0.156630054116249084
-0.0670965835452079773 0.114484861493110657 -0.181076914072036743
-0.0823574289679527283 0.204737022519111633 -0.231875330209732056
-0.0338943302631378174 0.210783764719963074 -0.273649930953979492
-0.360128670930862427 -0.0676589235663414001 0.173089578747749329
-0.0154783371835947037 0.143904000520706177 -0.24139028787612915
-0.10038457065820694 0.139198392629623413 -0.172191277146339417
-0.0506455525755882263 0.212803274393081665 -0.261927515268325806
-0.123374976217746735 0.131149411201477051 -0.148693442344665527
0.143291369080543518 -0.391271770000457764 0.00729163829237222672
0.064510151743888855 0.0435163937509059906 -0.233638644218444824
-0.04479256272315979 0.208250924944877625 -0.263229072093963623
-0.0468449778854846954 0.189092189073562622 -0.248295411467552185
0.0884388983249664307 0.134525403380393982 -0.315362870693206787
-0.0694787874817848206 0.181408867239952087 -0.225245490670204163
0.0849920287728309631 0.0381429605185985565 -0.245564237236976624
-0.0340337678790092468 0.172503888607025146 -0.246497854590415955
0.0620349757373332977 0.144033536314964294 -0.301280587911605835
0.0837039947509765625 0.021814761683344841 -0.233021512627601624
0.062238745391368866 0.0633064731955528259 -0.245033040642738342
-0.0899716019630432129 0.153712168335914612 -0.189674615859985352
-0.133091121912002563 -0.32265770435333252 0.174802929162979126
0.14157480001449585 0.00848263222724199295 -0.268497616052627563
0.108410164713859558 0.113183595240116119 -0.31548774242401123
0.104298293590545654 0.105477586388587952 -0.306933104991912842
-0.0831602662801742554 0.178127199411392212 -0.211884528398513794
0.0919142663478851318 0.0750617161393165588 -0.276165753602981567
0.0863577425479888916 0.0603258609771728516 -0.261612355709075928
-0.084171198308467865 0.146486461162567139 -0.189093887805938721
-0.0758916884660720825 0.172163262963294983 -0.213361591100692749
-0.0750548318028450012 0.16994832456111908 -0.212472006678581238
0.0940068438649177551 0.10064418613910675 -0.295561045408248901
0.0957578867673873901 0.113472804427146912 -0.3058338463306427
0.0865091308951377869 0.113829217851161957 -0.298901677131652832
0.0746619924902915955 0.0883036553859710693 -0.271969318389892578
0.0756593272089958191 0.131163403391838074 -0.302522927522659302
0.0461621880531311035 0.0929113030433654785 -0.253046363592147827
0.0465807467699050903 0.101330429315567017 -0.25922095775604248
0.0425142571330070496 0.0996064916253089905 -0.254866361618041992
0.0333280712366104126 0.0789794698357582092 -0.233403265476226807
0.0257203076034784317 0.0877236947417259216 -0.233572915196418762
0.0188466832041740417 0.103785164654254913 -0.239396587014198303
0.0704101473093032837 0.0248020496219396591 -0.224526062607765198
-0.0302782375365495682 0.0842593163251876831 -0.187590122222900391
-0.12478078156709671 0.305667966604232788 -0.267808318138122559
-0.253674954175949097 0.189288869500160217 -0.0860913544893264771
0.0558723844587802887 0.0320334769785404205 -0.216980457305908203
0.0529768504202365875 0.0331406630575656891 -0.21488364040851593
-0.157679483294487 0.191984102129936218 -0.161716699600219727
-0.314222246408462524 0.0863301679491996765 0.0334854908287525177
-0.106019981205463409 0.124871574342250824 -0.154026061296463013
-0.364807754755020142 -0.151443004608154297 0.239244475960731506
0.0812405049800872803 0.0137107828631997108 -0.221662312746047974
0.174157515168190002 0.113523490726947784 -0.362622946500778198
-0.140570208430290222 0.248197019100189209 -0.211825102567672729
0.156033262610435486 0.0193672794848680496 -0.282674670219421387
0.172986581921577454 0.108059205114841461 -0.357210546731948853
0.0418097078800201416 0.037301819771528244 -0.206161633133888245
0.0254707690328359604 0.0472261644899845123 -0.200071260333061218
-0.138395354151725769 -0.316400259733200073 0.179956153035163879
-0.319770574569702148 0.063690774142742157 0.0567047558724880219
0.127634361386299133 -0.431391149759292603 0.0541330911219120026
0.218376278877258301 -0.133592367172241211 -0.22288338840007782
0.176085680723190308 0.0869027450680732727 -0.342913061380386353
-0.135460957884788513 0.141090825200080872 -0.138242036104202271
-0.368758112192153931 -0.107954405248165131 0.216122597455978394
0.16098417341709137 0.060635693371295929 -0.312057316303253174
-0.122903101146221161 -0.324368745088577271 0.176131740212440491
0.152635201811790466 0.0301962383091449738 -0.283708423376083374
-0.310857445001602173 0.0912165641784667969 0.033938184380531311
0.105924651026725769 -0.442446142435073853 0.0815699025988578796
-0.122189223766326904 0.282758176326751709 -0.244983330368995667
0.175189316272735596 0.0813716799020767212 -0.335860013961791992
0.0709327384829521179 0.0190481208264827728 -0.211404725909233093
-0.355748951435089111 -0.162110388278961182 0.247202500700950623
-0.138889402151107788 0.246958300471305847 -0.20498165488243103
0.202249452471733093 -0.198226764798164368 -0.160235628485679626
0.149392783641815186 -0.0106535898521542549 -0.249437808990478516
-0.300266116857528687 0.124701082706451416 0.00706156855449080467
0.178830847144126892 0.113813675940036774 -0.357262104749679565
0.00505758542567491531 -0.399193525314331055 0.13473239541053772
0.158109813928604126 -0.0348351635038852692 -0.237192541360855103
-0.343955367803573608 -0.176696792244911194 0.25142359733581543
0.109278440475463867 -0.440331429243087769 0.0829827785491943359
-0.336715787649154663 -0.00151536834891885519 0.124819323420524597
-0.131146803498268127 0.270759999752044678 -0.223541617393493652
-0.332681149244308472 0.0118171181529760361 0.113143391907215118
-0.298777192831039429 0.127516657114028931 0.00672068027779459953
-0.220879018306732178 -0.25979459285736084 0.215762212872505188
0.154746547341346741 0.00352914049290120602 -0.258692830801010132
0.176131144165992737 -0.29370492696762085 -0.0687346011400222778
0.221349000930786133 -0.108932569622993469 -0.231947749853134155
0.178857877850532532 0.0869897902011871338 -0.334998369216918945
-0.236501693725585938 0.195136576890945435 -0.0874710828065872192
0.136711135506629944 -0.421979755163192749 0.0521356239914894104
-0.184500023722648621 0.176576554775238037 -0.114311881363391876
0.16816692054271698 0.0481748320162296295 -0.29796367883682251
0.183097794651985168 -0.271558463573455811 -0.0873771309852600098
-0.339904308319091797 -0.177968710660934448 0.253867954015731812
0.167162656784057617 0.0652998089790344238 -0.308621048927307129
-0.112577587366104126 0.307249665260314941 -0.259001225233078003
0.159940645098686218 -0.35323747992515564 -0.0114125972613692284
-0.285769790410995483 0.167255982756614685 -0.0268951151520013809
-0.293796420097351074 -0.212718009948730469 0.244187235832214355
-0.114740543067455292 0.299275577068328857 -0.24952368438243866
-0.305759042501449585 0.0950336828827857971 0.0417314432561397552
0.176721826195716858 0.091014765202999115 -0.329932034015655518
0.167157337069511414 0.0576557070016860962 -0.299270600080490112
-0.15085284411907196 0.194694951176643372 -0.147334709763526917
0.0390207134187221527 0.0432180240750312805 -0.189344361424446106
-0.295259803533554077 0.133185833692550659 0.00765450345352292061
-0.336093008518218994 -0.00797081086784601212 0.137793704867362976
0.186426848173141479 0.10831015557050705 -0.348360508680343628
0.178360551595687866 -0.29392629861831665 -0.0620152018964290619
-0.177475959062576294 0.176058545708656311 -0.112041890621185303
0.0784642547369003296 -0.434015840291976929 0.113981828093528748
-0.101390428841114044 -0.327401101589202881 0.17956995964050293
0.123945243656635284 -0.00741260312497615814 -0.21755632758140564
-0.0153328124433755875 0.0779930353164672852 -0.168715700507164001
0.181188225746154785 0.100333094596862793 -0.336702257394790649
-0.131203293800354004 0.241827011108398438 -0.192494839429855347
-0.316743850708007812 0.0536515899002552032 0.0823433175683021545
-0.151127353310585022 0.190863952040672302 -0.141551345586776733
-0.0874745696783065796 -0.335684537887573242 0.17490851879119873
0.16473071277141571 -0.343621283769607544 -0.014491555280983448
0.166791677474975586 0.0416409820318222046 -0.283376812934875488
0.173988029360771179 0.066968090832233429 -0.306556046009063721
-0.1291617751121521 0.259685486555099487 -0.205067440867424011
0.0172342974692583084 -0.398697316646575928 0.139088347554206848
-0.281907081604003906 0.171818628907203674 -0.0249209385365247726
-0.136382550001144409 0.22868858277797699 -0.177106842398643494
-0.122188247740268707 0.275939136743545532 -0.220820367336273193
-0.33501771092414856 -0.00910966936498880386 0.142826005816459656
-0.325971543788909912 0.0220129750669002533 0.11451287567615509
-0.0206665396690368652 -0.374618232250213623 0.153437986969947815
0.149826154112815857 -0.00162294658366590738 -0.237597987055778503
0.120605483651161194 -0.433470040559768677 0.0852862298488616943
0.138491585850715637 -0.421549767255783081 0.0642676353454589844
-0.0609083473682403564 0.109037436544895172 -0.148984208703041077
0.154634013772010803 -0.0119213378056883812 -0.232202455401420593
-0.35764920711517334 -0.131014153361320496 0.248377442359924316
-0.17114703357219696 0.176388517022132874 -0.109869562089443207
-0.298991292715072632 0.110033795237541199 0.0357529483735561371
-0.0653095394372940063 0.112367764115333557 -0.146695449948310852
-0.0480129756033420563 0.102414824068546295 -0.152067855000495911
-0.358210533857345581 -0.122881829738616943 0.245847001671791077
-0.334738612174987793 -0.0140607384964823723 0.152212604880332947
-0.203400269150733948 -0.259721904993057251 0.221318289637565613
-0.314914554357528687 0.050266653299331665 0.0934167429804801941
0.131128206849098206 -0.427510440349578857 0.0793399810791015625
-0.325219452381134033 0.0175108816474676132 0.124464303255081177
0.203368335962295532 -0.21877896785736084 -0.121384024620056152
-0.312143832445144653 -0.191508054733276367 0.259987026453018188
0.127379372715950012 -0.00298794102855026722 -0.21213260293006897
0.0825945883989334106 -0.43013840913772583 0.11954982578754425
0.189721167087554932 -0.266719609498977661 -0.0769546329975128174
0.00385307217948138714 0.0729202553629875183 -0.167768195271492004
0.0918548405170440674 0.0197381246834993362 -0.198585614562034607
-0.146473884582519531 0.19343876838684082 -0.133818864822387695
0.212297245860099792 -0.190194889903068542 -0.145624175667762756
0.231353521347045898 -0.113780893385410309 -0.213320448994636536
0.073278672993183136 0.031740877777338028 -0.191591322422027588
0.213427871465682983 -0.0643262490630149841 -0.2334919273853302
-0.193701043725013733 -0.26278221607208252 0.221024349331855774
0.151096999645233154 -0.0059203561395406723 -0.224918201565742493
-0.233913987874984741 0.202989012002944946 -0.0711091384291648865
-0.253400266170501709 0.198706433176994324 -0.0527604669332504272
-0.140274152159690857 0.194681450724601746 -0.13762606680393219
0.186776995658874512 -0.280697226524353027 -0.0610602051019668579
-0.064287915825843811 0.116582207381725311 -0.141405433416366577
-0.351999431848526001 -0.13361319899559021 0.256075292825698853
-0.340590864419937134 -0.156934469938278198 0.263714253902435303
0.166697606444358826 -0.352008640766143799 0.00565544934943318367
0.229741111397743225 -0.132667779922485352 -0.195628494024276733
0.0516331084072589874 0.0470013990998268127 -0.181752696633338928
-0.276620805263519287 0.175372377038002014 -0.0149157745763659477
-0.24621310830116272 -0.228261217474937439 0.242168396711349487
-0.280651718378067017 0.163991212844848633 -0.00337148783728480339
0.144703492522239685 -0.415819734334945679 0.0693574398756027222
0.196624681353569031 -0.25046086311340332 -0.0855572968721389771
0.211295709013938904 -0.19965808093547821 -0.132045075297355652
0.207551181316375732 -0.212917864322662354 -0.119670882821083069
0.126596316695213318 -0.428114235401153564 0.0930922999978065491
-0.21741698682308197 0.204285725951194763 -0.0788652151823043823
-0.278478324413299561 -0.207384586334228516 0.254795968532562256
-0.140741288661956787 0.197898164391517639 -0.13255174458026886
0.20020611584186554 -0.241070136427879333 -0.0916794911026954651
-0.158404737710952759 0.178783819079399109 -0.104343980550765991
0.232951685786247253 -0.127168804407119751 -0.195518016815185547
0.195207282900810242 -0.259324580430984497 -0.0742004513740539551
-0.191792607307434082 -0.25865471363067627 0.226117804646492004
-0.215274393558502197 -0.244019106030464172 0.234700232744216919
0.0346757620573043823 0.0615074858069419861 -0.171267136931419373
-0.0313221849501132965 -0.356176406145095825 0.170184940099716187
0.227106049656867981 -0.0764834880828857422 -0.224459648132324219
0.0117889605462551117 -0.382126122713088989 0.155430570244789124
-0.169027209281921387 0.186033591628074646 -0.0983200296759605408
0.197588756680488586 -0.253684580326080322 -0.0772224292159080505
0.163924366235733032 -0.0143705699592828751 -0.216355383396148682
-0.234990030527114868 0.206403955817222595 -0.0600497536361217499
0.0787715166807174683 0.0364174097776412964 -0.184776723384857178
0.229746326804161072 -0.0781109631061553955 -0.22173096239566803
-0.243170157074928284 0.204970076680183411 -0.050997365266084671
-0.300983309745788574 0.0801443904638290405 0.0811460390686988831
0.219768241047859192 -0.0599405057728290558 -0.225676223635673523
-0.339267194271087646 -0.0499478057026863098 0.201632559299468994
0.224264860153198242 -0.0663374811410903931 -0.224323302507400513
0.157308086752891541 0.000394143455196171999 -0.218663021922111511
0.160072118043899536 0.00786245428025722504 -0.224945992231369019
-0.293290495872497559 0.10689118504524231 0.0583673156797885895
0.166408106684684753 -0.0135902008041739464 -0.213799089193344116
-0.195798382163047791 -0.251250386238098145 0.232927024364471436
0.190154105424880981 -0.286386996507644653 -0.0415880046784877777
-0.294041663408279419 0.101181253790855408 0.0657854452729225159
-0.150782689452171326 -0.27754819393157959 0.218390271067619324
-0.0223737545311450958 -0.355953335762023926 0.173231855034828186
0.210307523608207703 -0.217932999134063721 -0.103133648633956909
-0.130434095859527588 0.170207411050796509 -0.106854625046253204
0.050090644508600235 0.0588051304221153259 -0.169380217790603638
-0.234973534941673279 0.208756193518638611 -0.0520553179085254669
0.236079186201095581 -0.130353555083274841 -0.181874260306358337
-0.267221748828887939 0.186250820755958557 -0.0102063138037919998
0.210785359144210815 -0.219528168439865112 -0.0990071147680282593
-0.228603407740592957 0.210667446255683899 -0.0560063086450099945
-0.208984166383743286 0.210267305374145508 -0.0709458291530609131
-0.227579548954963684 -0.22797103226184845 0.248323187232017517
0.218297988176345825 -0.0497408770024776459 -0.221584856510162354
-0.346619248390197754 -0.0867283567786216736 0.242711320519447327
0.2400980144739151 -0.116926707327365875 -0.191656202077865601
0.10438045859336853 0.0275705792009830475 -0.186387792229652405
-0.12828536331653595 -0.287832736968994141 0.214238345623016357
-0.346979260444641113 -0.105443462729454041 0.257508248090744019
0.120177961885929108 -0.423875480890274048 0.116218537092208862
-0.167919248342514038 -0.263263165950775146 0.228579133749008179
-0.271816790103912354 0.17260509729385376 0.00670805573463439941
-0.298609107732772827 0.0759487822651863098 0.0951749309897422791
0.208414167165756226 -0.232033103704452515 -0.0840405598282814026
-0.319383859634399414 0.00588883133605122566 0.161219149827957153
0.241072311997413635 -0.0905233249068260193 -0.206739991903305054
-0.262253850698471069 0.192447245121002197 -0.0115218842402100563
-0.0668579563498497009 -0.322900325059890747 0.195292562246322632
-0.0337202213704586029 0.114269986748695374 -0.133720725774765015
-0.289568006992340088 0.106031849980354309 0.0708942040801048279
0.240482956171035767 -0.123444795608520508 -0.18114006519317627
-0.303501784801483154 0.055489812046289444 0.1169324591755867
0.207042157649993896 -0.0330375991761684418 -0.217032372951507568
-0.00233929487876594067 -0.361195653676986694 0.173799902200698853
0.235960796475410461 -0.141001790761947632 -0.163764446973800659
0.200924307107925415 -0.262921243906021118 -0.0517120286822319031
-0.318744093179702759 0.00298737012781202793 0.16807323694229126
-0.271427005529403687 0.166490897536277771 0.0187410749495029449
0.171123310923576355 -0.368635326623916626 0.0470904186367988586
0.220228448510169983 -0.198374539613723755 -0.108889244496822357
-0.0169437751173973083 -0.350189834833145142 0.181210607290267944
-0.336481779813766479 -0.0607148744165897369 0.228235974907875061
0.156348153948783875 0.00277097779326140881 -0.198292061686515808
-0.249082937836647034 0.205667153000831604 -0.0237067844718694687
-0.228818744421005249 -0.220000416040420532 0.256616085767745972
0.239313811063766479 -0.133864477276802063 -0.166624486446380615
0.174781441688537598 0.0207822564989328384 -0.223760992288589478
-0.332114428281784058 -0.135985448956489563 0.278950899839401245
-0.265425890684127808 0.182771384716033936 0.00613811425864696503
-0.209110528230667114 -0.231301203370094299 0.250483334064483643
-0.0360258184373378754 -0.336860060691833496 0.189749449491500854
-0.0631373301148414612 0.137560725212097168 -0.118322700262069702
-0.184117108583450317 0.209847986698150635 -0.0744282305240631104
0.228313982486724854 -0.175089672207832336 -0.126328170299530029
-0.125423118472099304 0.179250955581665039 -0.0974966660141944885
0.127389922738075256 0.0227812919765710831 -0.184394121170043945
0.0140805663540959358 0.0914533734321594238 -0.143592983484268188
-0.114968538284301758 0.171256557106971741 -0.0985953733325004578
-0.335420191287994385 -0.0633487403392791748 0.235824167728424072
-0.322449475526809692 -0.0182958152145147324 0.194484680891036987
0.247694715857505798 -0.0942884534597396851 -0.194982677698135376
0.103834100067615509 0.0380148515105247498 -0.17518363893032074
-0.135813683271408081 0.191988781094551086 -0.0959814637899398804
-0.339946776628494263 -0.102573871612548828 0.267808735370635986
0.0810665860772132874 -0.404998779296875 0.151815757155418396
0.0621461793780326843 -0.393483966588973999 0.158839404582977295
-0.23062269389629364 -0.214540302753448486 0.26199766993522644
0.223522976040840149 -0.0397552065551280975 -0.211714819073677063
0.186827883124351501 -0.0119989346712827682 -0.202264413237571716
0.13189186155796051 -0.416902542114257812 0.122114092111587524
-0.314304143190383911 -0.155070126056671143 0.286837011575698853
-0.0137053560465574265 -0.346328616142272949 0.186430796980857849
-0.255730271339416504 0.198343008756637573 -0.00343583337962627411
0.0919092446565628052 -0.409121900796890259 0.149051323533058167
-0.0155034493654966354 0.112624369561672211 -0.129804283380508423
0.181591197848320007 -0.344507217407226562 0.0349576510488986969
-0.279956549406051636 0.124316051602363586 0.0677053257822990417
0.244207337498664856 -0.0702294781804084778 -0.203734040260314941
0.180460900068283081 -0.349013149738311768 0.0395666174590587616
0.0426143147051334381 -0.379199206829071045 0.168277382850646973
0.239127635955810547 -0.146367907524108887 -0.145451545715332031
-0.306582808494567871 0.0300164744257926941 0.155717283487319946
0.033217553049325943 -0.3728066086769104 0.172295421361923218
0.180457219481468201 0.0222956296056509018 -0.216369092464447021
-0.0546659156680107117 0.13868066668510437 -0.114630520343780518
-0.308817833662033081 -0.157237336039543152 0.289335638284683228
0.123302504420280457 -0.415320098400115967 0.133664652705192566
-0.282515406608581543 0.111002080142498016 0.0834906026721000671
0.00157828058581799269 -0.351893305778503418 0.185159102082252502
0.188011229038238525 -0.32790800929069519 0.0243900846689939499
-0.0626443102955818176 0.145644038915634155 -0.109921552240848541
0.177933335304260254 -0.363176345825195312 0.0569670200347900391
0.237098515033721924 -0.157830864191055298 -0.131321489810943604
0.251959443092346191 -0.101414702832698822 -0.181840687990188599
-0.288420170545578003 0.0865821689367294312 0.107411094009876251
-0.0373686887323856354 -0.326981455087661743 0.20008791983127594
0.172737181186676025 0.0149189038202166557 -0.200466468930244446
-0.253573358058929443 0.199735507369041443 0.00233230460435152054
0.12367500364780426 0.033232271671295166 -0.17417551577091217
-0.327329665422439575 -0.125574663281440735 0.286490023136138916
-0.336041837930679321 -0.0898476094007492065 0.268577516078948975
-0.290681988000869751 0.0758704543113708496 0.118854045867919922
0.250393539667129517 -0.114377982914447784 -0.168700814247131348
0.23274761438369751 -0.0411983728408813477 -0.205629974603652954
0.165945246815681458 -0.396380484104156494 0.0936759635806083679
-0.243392124772071838 -0.19931243360042572 0.274581819772720337
-0.118750184774398804 0.210204347968101501 -0.106457769870758057
-0.0991094708442687988 -0.287273675203323364 0.223989367485046387
-0.124416805803775787 0.212030962109565735 -0.103285714983940125
-0.291282147169113159 -0.168383166193962097 0.291055113077163696
0.0865089520812034607 0.0578867979347705841 -0.158895894885063171
-0.133785635232925415 0.195735856890678406 -0.0832774266600608826
0.225405767560005188 -0.204553648829460144 -0.0834521278738975525
-0.118764825165271759 0.187766283750534058 -0.0884892120957374573
-0.174215808510780334 -0.239898115396499634 0.252054095268249512
-0.0957599803805351257 -0.287452101707458496 0.224844574928283691
0.220904096961021423 -0.221922531723976135 -0.0660973712801933289
0.177412331104278564 -0.373431146144866943 0.0733024999499320984
0.222561627626419067 -0.217405602335929871 -0.0692272484302520752
-0.0763562843203544617 -0.298052340745925903 0.219379410147666931
0.183095410466194153 -0.355096995830535889 0.0576125457882881165
-0.0227654464542865753 -0.330689281225204468 0.200625404715538025
-0.113176032900810242 -0.275441557168960571 0.232468575239181519
0.0832625404000282288 0.0633257701992988586 -0.154825389385223389
0.12987498939037323 0.0344855412840843201 -0.170852556824684143
0.208671778440475464 -0.267250478267669678 -0.0221823155879974365
-0.0482644326984882355 -0.314011663198471069 0.210799798369407654
-0.094263806939125061 0.172341093420982361 -0.0909556075930595398
0.256702810525894165 -0.08671540766954422 -0.183204233646392822
0.198033615946769714 -0.306474059820175171 0.0156675893813371658
-0.118844285607337952 0.217389777302742004 -0.102035172283649445
-0.218743294477462769 0.223656684160232544 -0.0285174958407878876
0.257194429636001587 -0.0974219664931297302 -0.174485012888908386
-0.271783828735351562 0.132094636559486389 0.0774281248450279236
-0.0322298482060432434 0.137668430805206299 -0.111993387341499329
0.243451476097106934 -0.150761872529983521 -0.125538170337677002
-0.232841178774833679 0.219273999333381653 -0.0125459413975477219
0.257332354784011841 -0.077620774507522583 -0.185318142175674438
0.00580032775178551674 0.117772720754146576 -0.124758869409561157
0.11368686705827713 0.0489874519407749176 -0.160329908132553101
-0.113771125674247742 0.21096271276473999 -0.0958486646413803101
-0.130420029163360596 -0.259492665529251099 0.244435951113700867
-0.301010072231292725 0.0253166835755109787 0.179710343480110168
0.25496181845664978 -0.115634039044380188 -0.153800696134567261
0.0136682251468300819 -0.346960544586181641 0.194319933652877808
0.11094287782907486 0.0521616078913211823 -0.158053934574127197
-0.261352241039276123 -0.177980944514274597 0.292187243700027466
0.227948635816574097 -0.211342692375183105 -0.064442560076713562
-0.266993999481201172 0.141290098428726196 0.0750787332653999329
-0.301004886627197266 -0.145413145422935486 0.30256536602973938
0.129927948117256165 -0.405838638544082642 0.149530231952667236
0.220551237463951111 -0.239748448133468628 -0.0361599251627922058
-0.190728649497032166 -0.219466611742973328 0.269132822751998901
0.215759962797164917 -0.256646186113357544 -0.0204458720982074738
-0.0131299737840890884 0.13867633044719696 -0.117380388081073761
0.132100582122802734 0.0429477095603942871 -0.163242369890213013
0.205150634050369263 -0.00364950136281549931 -0.18730558454990387
0.187731131911277771 0.0362161062657833099 -0.201391339302062988
0.0659828409552574158 0.0931799411773681641 -0.145604774355888367
-0.078769296407699585 0.172474473714828491 -0.088124491274356842
-0.174700915813446045 -0.228085815906524658 0.264767438173294067
-0.0116538712754845619 0.141643226146697998 -0.117569625377655029
0.198901653289794922 -0.318711549043655396 0.0393746569752693176
-0.268213480710983276 0.130671992897987366 0.0900430679321289062
0.198874369263648987 -0.319155961275100708 0.0400684848427772522
0.105409018695354462 0.0707683861255645752 -0.156484320759773254
-0.263725847005844116 -0.171410128474235535 0.298575520515441895
-0.0415919534862041473 0.162046626210212708 -0.104084201157093048
0.0525676123797893524 -0.363403856754302979 0.188599660992622375
-0.241693153977394104 -0.182976946234703064 0.292905956506729126
-0.0510503724217414856 0.16733357310295105 -0.097774997353553772
-0.157826140522956848 -0.233609288930892944 0.264039188623428345
0.179595038294792175 -0.383449554443359375 0.106731303036212921
0.265804290771484375 -0.0836991816759109497 -0.168418213725090027
-0.0897517874836921692 0.184130102396011353 -0.0783853381872177124
0.236658990383148193 -0.19495120644569397 -0.0681412816047668457
-0.042877197265625 0.165973469614982605 -0.101452164351940155
-0.255738496780395508 0.166320532560348511 0.063617900013923645
0.142029359936714172 0.0485458895564079285 -0.1625690758228302
-0.234236627817153931 0.218888074159622192 0.0118520995602011681
0.231772840023040771 -0.213934049010276794 -0.0490777567028999329
0.10253462940454483 0.0793147087097167969 -0.151782095432281494
-0.239177882671356201 -0.181818008422851562 0.294956356287002563
-0.263705015182495117 0.136312931776046753 0.0930636152625083923
0.130566298961639404 0.0602383241057395935 -0.160148948431015015
0.213407993316650391 -0.279034912586212158 0.0117304418236017227
0.168438270688056946 -0.394171088933944702 0.126990899443626404
0.224994465708732605 -0.239496678113937378 -0.0239708647131919861
0.122439846396446228 0.0669795870780944824 -0.15711858868598938
0.194784685969352722 0.0414295569062232971 -0.19541485607624054
0.220803096890449524 -0.254486292600631714 -0.00986399967223405838
0.189910233020782471 0.0344491787254810333 -0.186308324337005615
-0.282464712858200073 0.0687491744756698608 0.156667336821556091
